-0.259530 0.099913 -0.287623 -0.555426 -0.823040 -0.118776
-0.271947 0.116634 -0.306324 -0.754330 -0.589700 -0.288515
-0.057196 0.576573 0.249135 -0.051954 0.747865 0.661815
-0.048471 0.583798 0.241806 0.028664 0.789861 0.612616
-0.196936 0.578894 0.133135 -0.679608 0.720420 0.138305
-0.190726 0.579447 0.145987 -0.633970 0.721363 0.278779
-0.186331 0.586610 0.134661 -0.554594 0.824996 0.108661
-0.184776 0.579502 0.158151 -0.621911 0.710225 0.329860
-0.173794 0.594013 0.136280 -0.445295 0.885880 0.130112
-0.166550 0.593982 0.148138 -0.380583 0.899977 0.212599
-0.180010 0.588132 0.147537 -0.533312 0.809211 0.246486
0.056345 0.565826 0.248311 0.341695 0.728838 0.593329
0.059028 0.572365 0.238683 0.337529 0.762743 0.551631
0.049596 0.579693 0.233446 0.288764 0.838555 0.461997
0.063051 0.577899 0.226787 0.348820 0.860789 0.370629
0.062465 0.395234 0.345852 0.310934 0.145962 0.939157
0.529930 0.290296 -0.015449 0.855570 0.456181 0.244742
0.261920 -0.119656 0.153823 0.736609 0.573777 -0.358032
0.262612 -0.115496 0.165191 0.761247 0.612134 -0.214000
0.268190 -0.119123 0.177323 0.734857 0.672989 -0.084091
-0.204467 -0.802011 0.128268 -0.093436 0.392307 0.915077
-0.201084 -0.792121 0.123563 -0.013401 0.526956 0.849787
-0.191737 -0.786574 0.118767 0.253127 0.623487 0.739723
-0.180854 -0.795006 0.118712 0.587472 0.455856 0.668634
-0.116045 0.475786 -0.161462 -0.568656 0.464646 -0.678774
-0.118302 0.521899 -0.147470 -0.234008 0.182251 -0.955000
-0.125233 0.516225 -0.146861 -0.324346 0.216169 -0.920908
-0.133159 0.516111 -0.142128 -0.576551 0.301170 -0.759530
-0.117974 0.533061 -0.143786 -0.409980 0.389133 -0.824919
-0.113637 0.543129 -0.140070 -0.412269 0.567282 -0.712899
-0.317578 -0.328952 0.096207 -0.642460 -0.541307 0.542432
-0.306729 -0.329985 0.106494 -0.551453 -0.583439 0.596237
-0.307818 -0.338203 0.096055 -0.561898 -0.571040 0.598485
-0.303823 -0.349280 0.090933 -0.572557 -0.504585 0.646198
-0.296010 -0.342791 0.102154 -0.551930 -0.546417 0.629922
0.069536 0.591582 -0.103036 0.525959 0.493752 -0.692514
0.054084 0.603913 -0.110558 0.436649 0.308234 -0.845180
0.086115 0.592983 -0.095778 0.410233 0.307685 -0.858510
0.067174 0.602682 -0.103177 0.570623 0.182338 -0.800714
0.096637 0.019061 -0.018910 0.744324 -0.616922 -0.255711
0.094308 0.012709 -0.006657 0.625072 -0.670182 -0.400176
0.094254 0.022247 -0.030294 0.738441 -0.542357 -0.400692
0.102342 0.033982 -0.015586 0.894568 -0.266967 -0.358436
0.101382 0.023450 -0.009255 0.802877 -0.450156 -0.390831
0.102824 0.015999 0.000647 0.682721 -0.579027 -0.445667
0.103762 0.048774 -0.022274 0.631643 -0.632715 -0.447994
0.108508 0.042013 -0.009982 0.670582 -0.542450 -0.506031
0.115271 0.039845 0.000093 0.740479 -0.469836 -0.480567
0.116819 0.031083 0.008512 0.784938 -0.348296 -0.512408
0.118999 0.022221 0.017303 0.765406 -0.451932 -0.458161
0.252520 0.197509 0.174763 0.289938 -0.386915 0.875347
0.251247 0.187318 0.170414 0.199005 -0.415380 0.887613
-0.335059 -0.866896 -0.236640 0.058085 -0.995274 0.077823
-0.329242 -0.866317 -0.248145 0.519198 -0.812610 -0.264762
0.278812 -0.348807 0.284627 0.817521 0.040782 0.574453
0.287817 -0.373978 0.271769 0.904329 0.097500 0.415551
0.285500 -0.359963 0.275857 0.901702 0.068407 0.426913
-0.270271 0.264483 0.258409 -0.717688 -0.153954 0.679133
-0.273811 0.253134 0.251008 -0.817886 -0.237860 0.523913
-0.332171 -0.829064 -0.239697 -0.171250 0.884099 -0.434791
-0.320116 -0.830151 -0.237164 0.466222 0.631931 -0.619113
-0.324569 -0.839756 -0.247329 0.619001 0.380684 -0.686963
-0.124132 0.076432 -0.097307 -0.381972 -0.702693 -0.600267
-0.134853 0.081337 -0.096611 -0.394018 -0.720105 -0.571137
-0.136299 -0.579179 -0.052817 0.987147 -0.019189 -0.158661
-0.137474 -0.565692 -0.057613 0.984229 -0.036770 -0.173036
-0.138824 -0.567989 -0.070738 0.960945 -0.091428 -0.261200
-0.139597 -0.578885 -0.066506 0.943084 -0.095251 -0.318621
0.266254 0.112979 -0.018706 -0.180855 -0.872350 -0.454200
0.061292 0.288256 0.353437 0.273202 -0.158096 0.948876
0.048578 0.289549 0.356165 0.251258 -0.185008 0.950074
0.053173 0.277591 0.351785 0.217059 -0.218853 0.951309
0.066380 0.278900 0.348810 0.297271 -0.206719 0.932146
0.055625 -0.577222 0.474473 -0.964701 -0.262572 -0.020203
0.058260 -0.584966 0.482574 -0.971139 -0.237629 -0.020536
0.060517 -0.585376 0.460990 -0.902082 -0.399027 -0.164395
-0.298637 -0.273376 0.148391 -0.622886 -0.320702 0.713557
-0.296811 -0.261608 0.153636 -0.606502 -0.202422 0.768883
-0.306627 -0.262708 0.144652 -0.702143 -0.197368 0.684135
-0.309850 -0.272989 0.137111 -0.741032 -0.337845 0.580286
-0.184725 0.161585 -0.133547 0.821939 -0.119410 0.556918
-0.178050 0.184678 -0.142312 0.824048 -0.494201 -0.276966
-0.183836 0.173504 -0.133431 0.685902 -0.703538 -0.185937
-0.182088 0.160330 -0.122679 -0.813572 -0.105459 -0.571821
0.288922 -0.763676 0.407319 -0.445704 -0.010997 -0.895113
0.287363 -0.775341 0.411578 -0.493682 -0.493924 -0.715764
-0.189047 -0.428480 0.021984 0.485503 -0.845428 0.222573
0.286115 -0.358819 0.179484 0.734477 -0.617300 -0.281929
0.287536 -0.353000 0.167590 0.737845 -0.572606 -0.357360
-0.232842 0.254931 0.291187 -0.474354 -0.186193 0.860418
-0.244195 0.251352 0.281141 -0.680011 -0.170381 0.713131
-0.190544 0.301878 -0.198428 0.536228 0.793153 -0.288737
0.320746 -0.770870 0.404912 0.738155 0.257782 -0.623438
0.300537 -0.762253 0.402546 -0.191318 0.215702 -0.957533
0.296128 -0.751957 0.408088 -0.124141 0.421200 -0.898432
0.229529 0.358926 -0.050211 0.879363 0.261978 -0.397603
0.232906 0.345745 -0.046849 0.921963 0.061462 -0.382369
0.235054 0.336562 -0.041159 0.954168 -0.066546 -0.291781
0.237153 0.349624 -0.033102 0.957825 0.081126 -0.275661
0.232671 0.360697 -0.040612 0.899328 0.277702 -0.337774
0.277472 -0.281285 0.302183 0.533131 0.097894 0.840350
0.287187 -0.279215 0.294515 0.687914 0.101283 0.718690
0.045773 -0.074714 -0.039430 0.507569 -0.212719 -0.834940
0.057258 -0.081850 -0.029674 0.692181 -0.317234 -0.648265
0.169163 0.003850 0.153816 0.987168 -0.049769 -0.151734
0.167366 0.010565 0.166706 0.930303 -0.004031 0.366769
0.088094 0.581037 -0.099158 0.577240 0.637824 -0.509877
0.093790 0.588494 -0.092148 0.497365 0.209898 -0.841766
0.218690 0.218547 -0.046644 0.204371 -0.177934 -0.962586
0.218735 0.190776 -0.035734 -0.106150 -0.429618 -0.896750
-0.061742 0.590574 -0.137025 -0.204007 0.657247 -0.725539
-0.010565 0.613736 -0.129921 0.264218 0.546500 -0.794686
-0.014866 0.601084 -0.136086 0.308917 0.329912 -0.892036
-0.348370 -0.849953 -0.206196 -0.955934 -0.037038 0.291235
0.007925 -0.023380 -0.064618 0.166015 -0.330412 -0.929122
0.020231 -0.019343 -0.062275 0.263430 -0.189520 -0.945879
0.012008 -0.009455 -0.065946 0.253014 -0.150946 -0.955615
0.017866 0.002046 -0.066370 0.255280 -0.391489 -0.884064
0.000087 -0.010876 -0.068602 0.153293 -0.166909 -0.973983
0.142961 -0.569316 0.346615 0.149186 -0.790994 -0.593356
0.150444 -0.558882 0.339161 0.169696 -0.748052 -0.641578
0.155435 -0.565943 0.350656 0.220255 -0.807961 -0.546523
0.134682 -0.559505 0.336200 0.026174 -0.771259 -0.635983
-0.296750 -0.203334 -0.062385 -0.482568 0.637183 -0.600938
-0.302007 -0.195163 -0.053441 -0.457271 0.551918 -0.697345
-0.278859 -0.185208 -0.063924 -0.460739 0.596751 -0.656969
0.063166 0.049700 -0.071759 0.587225 -0.163770 -0.792683
0.045348 0.055530 -0.083719 0.463705 -0.243650 -0.851829
0.065897 0.061029 -0.070921 0.670730 -0.029504 -0.741114
0.056460 0.056957 -0.077743 0.540019 -0.155409 -0.827181
0.120971 0.056481 -0.034033 0.270631 -0.893324 -0.358791
0.120315 0.061274 -0.044107 0.336021 -0.817800 -0.467218
0.131038 0.061667 -0.034666 0.517586 -0.755305 -0.402018
0.119494 0.076111 -0.064058 0.467798 -0.633359 -0.616459
0.120746 0.067889 -0.053566 0.423837 -0.727179 -0.539975
0.127987 0.077647 -0.057670 0.592866 -0.565674 -0.573169
0.138072 0.072087 -0.039413 0.701108 -0.549165 -0.454824
0.019097 -0.091657 -0.042417 0.272980 -0.427841 -0.861646
0.020903 -0.081573 -0.048650 0.261933 -0.418367 -0.869690
0.030996 -0.087613 -0.041197 0.339186 -0.496352 -0.799117
0.098089 0.063833 0.279737 0.630911 -0.242377 0.737024
0.095127 0.071327 0.284781 0.678895 -0.047139 0.732721
0.102681 0.058586 0.273465 0.646076 -0.330852 0.687839
0.106329 0.054757 0.266058 0.642282 -0.359979 0.676674
0.112640 0.064399 0.266781 0.710072 -0.154978 0.686862
0.116332 0.058014 0.260763 0.642124 -0.282010 0.712844
0.122684 0.055071 0.253609 0.682432 -0.260413 0.682987
-0.147995 0.023672 -0.537629 -0.270807 -0.940956 -0.203140
-0.143686 0.021258 -0.525771 -0.260314 -0.946611 -0.190167
-0.138314 0.023857 -0.548342 -0.283515 -0.936374 -0.206939
-0.155222 0.028698 -0.544845 -0.483258 -0.792515 -0.371997
-0.127068 0.023716 -0.565418 -0.353730 -0.911181 -0.211245
-0.138553 0.027255 -0.564021 -0.442547 -0.830775 -0.337586
-0.127179 0.026232 -0.575697 -0.396047 -0.823851 -0.405483
-0.147551 0.027791 -0.552450 -0.451886 -0.826161 -0.336538
-0.038111 0.195216 0.346041 -0.330520 -0.516161 0.790149
-0.133898 0.568481 -0.060789 -0.754609 0.483607 -0.443498
-0.137797 0.579255 -0.048871 -0.558237 0.557226 -0.614712
-0.127827 0.579380 -0.057159 -0.687633 0.583715 -0.431784
-0.150184 0.556502 -0.054241 -0.405625 0.692219 -0.596910
-0.149027 0.576794 -0.040656 -0.573964 0.531919 -0.622597
-0.045177 -0.274842 0.300563 0.153843 -0.753207 -0.639540
-0.039158 -0.280886 0.310810 0.309240 -0.859789 -0.406366
-0.270302 0.102024 -0.206968 -0.397863 -0.788946 0.468261
-0.267220 0.107514 -0.195442 -0.351532 -0.863964 0.360543
-0.288160 0.114692 -0.199721 -0.454042 -0.835801 0.308678
-0.277821 0.114088 -0.187202 -0.360611 -0.907090 0.217136
-0.290549 0.118721 -0.185138 -0.429601 -0.883900 0.184834
-0.277808 0.109885 -0.201239 -0.379775 -0.832137 0.404127
-0.287384 0.103509 -0.222737 -0.481122 -0.812804 0.328437
-0.269866 0.094264 -0.224187 -0.380437 -0.866343 0.323601
-0.280051 0.103064 -0.213742 -0.411750 -0.823047 0.391223
-0.264495 0.094586 -0.215543 -0.322196 -0.870515 0.372013
0.405338 0.135949 -0.013313 0.056723 -0.771007 0.634295
0.413171 0.151003 0.003150 0.070149 -0.696874 0.713755
0.401142 0.144712 -0.001642 0.322276 -0.738616 0.592101
0.389785 0.137256 0.001666 0.621624 -0.684848 0.380218
0.402490 0.155043 0.010930 0.386589 -0.702993 0.596950
0.255959 0.171532 -0.054058 -0.407058 -0.223729 -0.885578
-0.273419 0.093748 -0.255631 -0.301826 -0.816968 -0.491389
-0.263079 0.100757 -0.273789 -0.476971 -0.856890 -0.195545
-0.261563 0.095227 -0.261031 -0.229907 -0.853837 -0.467017
-0.280140 0.092943 -0.243922 -0.412083 -0.909387 -0.056596
-0.254155 0.083480 -0.241744 -0.119635 -0.990962 -0.060671
0.163857 -0.543325 0.320496 0.067410 -0.825492 -0.560374
0.144710 -0.760180 0.467102 0.011231 -0.958402 0.285200
0.154872 -0.761965 0.461834 -0.031395 -0.954607 0.296210
0.169829 -0.767352 0.446907 -0.057319 -0.959694 0.275139
0.165946 -0.759665 0.470521 -0.074230 -0.955794 0.284513
0.173796 -0.757131 0.483487 -0.097247 -0.965421 0.241880
0.177301 -0.754437 0.496534 -0.059416 -0.972577 0.224865
-0.076756 -0.208916 0.346038 -0.600608 0.636617 0.483724
-0.068456 -0.201375 0.346118 -0.468435 0.667580 0.578710
-0.068462 -0.186181 0.329713 -0.481354 0.653215 0.584473
0.164969 -0.205000 0.332577 -0.165761 0.033238 0.985606
0.174453 -0.210447 0.332966 -0.132815 0.070224 0.988650
0.178813 -0.199547 0.334323 -0.033997 0.057297 0.997778
0.186422 -0.207810 0.334421 -0.012902 0.133457 0.990971
-0.232816 0.223243 -0.353726 -0.604912 0.790581 -0.095206
-0.238373 0.221605 -0.343565 -0.595840 0.752618 -0.280251
-0.260233 0.197595 -0.336428 -0.815880 0.371783 -0.442851
-0.254572 0.208316 -0.336483 -0.747551 0.500563 -0.436582
-0.256221 0.217673 -0.325022 -0.647244 0.439844 -0.622585
-0.259574 0.279225 -0.259869 -0.135238 0.824890 -0.548879
-0.249805 0.277742 -0.265249 -0.230231 0.823705 -0.518174
-0.237464 0.273288 -0.278654 -0.085409 0.886616 -0.454551
-0.229236 0.271327 -0.283860 0.069461 0.898298 -0.433862
-0.238369 0.267331 -0.291168 -0.098209 0.873726 -0.476400
-0.247067 0.261024 -0.298169 -0.238587 0.817606 -0.524020
-0.257330 0.271638 -0.273043 -0.210806 0.864825 -0.455673
-0.250442 0.268425 -0.284868 -0.227525 0.858737 -0.459134
-0.265734 0.127796 0.031276 -0.808532 -0.556238 -0.192030
-0.270294 0.130739 0.045798 -0.802438 -0.567061 -0.185836
-0.266605 0.122960 0.054813 -0.770790 -0.624317 -0.126928
-0.273494 0.130092 0.061566 -0.780209 -0.615053 -0.113947
-0.258751 0.114233 0.055580 -0.748146 -0.654239 -0.110671
-0.149323 0.516632 -0.120156 -0.515855 0.562016 -0.646553
-0.164716 0.499493 -0.125697 -0.663065 0.663401 -0.346761
-0.173128 0.490104 -0.123987 -0.747929 0.633306 -0.198808
0.254603 -0.764819 0.409379 0.984879 -0.098688 0.142388
0.262939 -0.774212 0.383345 0.951479 0.027550 0.306479
-0.108774 0.009384 0.301131 -0.227643 -0.026706 0.973378
-0.096186 0.010893 0.303910 -0.326449 -0.241066 0.913957
-0.101904 -0.001943 0.301701 -0.142650 -0.080805 0.986469
-0.098286 -0.016099 0.301678 -0.163406 0.015829 0.986432
-0.089530 -0.003130 0.302337 -0.231892 -0.168669 0.958007
-0.077352 0.001058 0.309950 -0.402258 -0.402254 0.822424
-0.171409 0.433129 -0.152950 -0.344439 0.439255 -0.829709
-0.159254 0.434180 -0.157593 -0.322038 0.477649 -0.817400
-0.151478 0.426494 -0.165310 -0.284190 0.549604 -0.785603
-0.171970 0.415405 -0.166004 -0.407872 0.474234 -0.780220
-0.165962 0.424990 -0.161697 -0.302296 0.572468 -0.762167
-0.183076 0.411288 -0.162231 -0.415409 0.427995 -0.802656
0.191895 0.123745 0.140914 0.763611 -0.645010 0.029326
0.184478 0.115780 0.142278 0.754011 -0.656752 0.011975
0.185653 0.120649 0.159166 0.625566 -0.774109 0.097071
0.181236 0.112396 0.151559 0.771091 -0.621782 0.137133
-0.148664 0.439582 -0.158922 -0.364358 0.386383 -0.847320
-0.147969 0.451211 -0.154684 -0.349303 0.346173 -0.870719
-0.088125 0.524207 -0.145933 -0.301861 0.414512 -0.858522
-0.098010 0.526405 -0.147657 0.122883 0.105548 -0.986793
-0.093780 0.537224 -0.145431 0.017084 0.130220 -0.991338
0.109073 -0.109254 0.289932 0.245790 0.235562 0.940265
0.124348 -0.096449 0.279604 0.248806 0.428679 0.868522
0.129861 -0.120395 0.289126 0.081755 0.456945 0.885730
0.136993 -0.112608 0.284077 0.193897 0.429407 0.882051
0.114998 -0.100775 0.285335 0.317616 0.373689 0.871479
0.136256 -0.102040 0.280399 0.253712 0.423094 0.869840
0.134598 -0.090899 0.274989 0.252756 0.400056 0.880948
0.146029 -0.078696 0.263726 0.527732 0.393813 0.752602
0.133084 0.573918 -0.068473 0.648711 0.374909 -0.662282
0.117605 0.591291 -0.073599 0.733625 0.396945 -0.551570
0.092418 0.602765 -0.089897 0.418103 0.438924 -0.795321
0.105839 0.600174 -0.081066 0.610132 0.497376 -0.616730
0.113704 0.601630 -0.069914 0.705114 0.631764 -0.322007
0.133469 0.582275 -0.051316 0.646732 0.761051 -0.050387
0.127725 0.585569 -0.062781 0.718524 0.623379 -0.308419
0.073178 0.619423 -0.088241 0.603734 0.640559 -0.474541
0.063765 0.629391 -0.082579 0.424748 0.878984 -0.216741
0.088855 0.616574 -0.071244 0.351998 0.917741 -0.183982
0.039828 0.631057 -0.089110 0.027380 0.982577 -0.183827
0.034211 0.622951 -0.109834 0.354810 0.668943 -0.653166
0.006994 0.631917 -0.104317 -0.103727 0.968680 -0.225608
0.028573 0.630979 -0.097283 0.168486 0.965986 -0.196173
-0.021068 0.621426 -0.124532 -0.019354 0.846590 -0.531894
-0.341479 -0.835204 -0.241330 -0.672713 0.728563 -0.129045
-0.339207 -0.832341 -0.226812 -0.754554 0.654704 -0.044849
-0.347127 -0.843441 -0.226082 -0.891830 0.451550 -0.027256
-0.342271 -0.837523 -0.213656 -0.822630 0.559802 0.099510
0.044556 -0.013882 -0.053602 0.444649 -0.120777 -0.887525
0.052003 -0.023421 -0.048283 0.501995 -0.188073 -0.844174
0.039999 -0.025351 -0.054271 0.384273 -0.232050 -0.893581
0.032639 -0.015995 -0.058674 0.352916 -0.122126 -0.927650
0.362749 0.299431 -0.011056 -0.618384 0.624544 0.477018
0.354972 0.292254 -0.015958 -0.681691 0.602471 0.415123
0.159007 0.090118 -0.020213 0.836497 -0.457494 -0.301615
0.159654 0.083150 -0.006480 0.814662 -0.503279 -0.288159
0.163797 0.095799 -0.012747 0.822127 -0.479189 -0.307383
0.165346 0.092635 -0.005194 0.841916 -0.454568 -0.290765
0.172134 0.094835 0.013763 0.879639 -0.453641 -0.142990
-0.179991 0.142540 -0.126639 -0.638105 -0.351483 -0.685041
-0.177967 0.155658 -0.133804 -0.791763 -0.046264 -0.609074
-0.184824 0.151250 -0.124899 -0.819062 0.043814 -0.572029
-0.189877 0.151930 -0.115049 -0.706797 -0.197588 -0.679262
-0.187530 0.161190 -0.114145 -0.110597 -0.652940 -0.749291
0.292042 0.105071 -0.017942 -0.093375 -0.942888 -0.319754
0.209285 -0.080508 0.129660 0.839931 0.501441 -0.207539
0.204544 -0.070651 0.135133 0.839978 0.530636 -0.113415
0.108224 -0.340063 0.198081 -0.796184 -0.526061 -0.298915
0.108472 -0.334916 0.188946 -0.742924 -0.578669 -0.336462
0.088573 -0.301429 0.170798 -0.717058 -0.626514 -0.305464
0.096335 -0.305194 0.162695 -0.647389 -0.641311 -0.411835
0.104858 -0.326255 0.181659 -0.715567 -0.598966 -0.359448
0.095759 -0.310329 0.171728 -0.703369 -0.621189 -0.345538
0.104484 -0.315693 0.165942 -0.640240 -0.630393 -0.438974
0.098221 -0.316621 0.178108 -0.717786 -0.607371 -0.340418
0.349647 0.113788 -0.005069 0.193731 -0.980714 0.025833
0.345748 0.113178 -0.018218 0.127147 -0.990749 -0.047438
0.353342 0.115114 -0.030664 0.139548 -0.987162 -0.077696
0.358537 0.115360 -0.015178 0.250906 -0.967907 0.014235
-0.250306 -0.551077 -0.154844 0.337738 -0.270090 -0.901657
-0.234166 -0.557934 -0.145617 0.440182 -0.173370 -0.881012
-0.259200 -0.563419 -0.154007 0.142969 -0.292304 -0.945578
-0.245067 -0.563025 -0.151786 0.353156 -0.189086 -0.916257
-0.219608 0.096738 -0.206627 0.135949 -0.860308 0.491313
-0.225908 0.101465 -0.198484 0.028055 -0.928329 0.370699
-0.240925 0.103253 -0.196218 -0.025299 -0.938314 0.344858
0.194456 -0.088488 0.239054 0.260268 0.890506 0.373176
0.175839 -0.103270 0.268345 0.042107 0.880636 0.471919
0.201658 -0.101718 0.264566 0.115697 0.867605 0.483607
0.186758 -0.099751 0.259354 0.064910 0.873513 0.482454
0.225019 0.236444 -0.047305 0.425494 -0.061999 -0.902835
0.215950 0.229511 -0.051404 0.447982 -0.189665 -0.873693
0.206287 0.221791 -0.053571 0.736879 -0.299789 -0.605918
0.206997 0.244694 -0.059472 0.800577 -0.051887 -0.596979
0.217515 0.263669 -0.052785 0.688265 -0.100628 -0.718446
0.216418 0.242510 -0.052774 0.526604 -0.011184 -0.850037
0.055930 -0.236091 0.088416 -0.096048 -0.911788 -0.399271
0.065718 -0.238217 0.094518 -0.078553 -0.956968 -0.279360
0.043594 -0.242006 0.108505 -0.156503 -0.964899 -0.210893
0.037480 -0.236948 0.098547 -0.212979 -0.914406 -0.344241
0.220770 0.253304 -0.048454 0.480277 0.032245 -0.876524
0.228559 0.246159 -0.046149 0.370369 0.001339 -0.928884
0.227350 0.227183 -0.045762 0.224181 -0.035040 -0.973917
0.219895 0.277643 -0.050365 0.823091 -0.097483 -0.559480
0.223839 0.265267 -0.045970 0.551051 0.062357 -0.832139
0.229980 0.271694 -0.041674 0.428908 0.184905 -0.884222
0.239769 0.248834 -0.042396 0.368415 0.010909 -0.929597
0.495704 0.195926 0.013986 0.612395 -0.355866 0.705926
0.485148 0.216963 0.031704 0.454887 -0.309874 0.834899
0.483695 0.205418 0.027899 0.470546 -0.350811 0.809641
0.471843 0.206821 0.034443 0.414752 -0.318254 0.852464
0.491492 0.203299 0.021828 0.576125 -0.375579 0.725961
-0.274829 0.179355 -0.325044 -0.820636 0.182773 -0.541433
-0.266950 0.186883 -0.332735 -0.811978 0.300139 -0.500608
-0.279384 0.189079 -0.314650 -0.689191 0.153034 -0.708235
-0.262124 0.206012 -0.327015 -0.737248 0.412298 -0.535234
-0.269464 0.195464 -0.324232 -0.756082 0.326133 -0.567431
-0.267163 0.211213 -0.317385 -0.586075 0.257371 -0.768294
-0.274765 0.200508 -0.315227 -0.576637 0.206813 -0.790391
-0.280020 0.209103 -0.311508 -0.396387 0.070564 -0.915368
-0.287035 0.198707 -0.308909 -0.480374 0.008429 -0.877023
-0.276969 0.219440 -0.311945 -0.373541 0.111233 -0.920920
0.202003 0.126487 0.046280 -0.724077 -0.655167 -0.215565
0.207190 0.122878 0.037352 -0.678214 -0.725367 -0.117766
0.208548 0.121541 0.049053 -0.551434 -0.825790 -0.118283
-0.103142 -0.250997 0.359537 -0.965935 0.256231 -0.036262
-0.094833 -0.232103 0.349285 -0.839824 0.507566 0.192541
-0.102469 -0.250559 0.346530 -0.981973 0.185156 -0.038017
-0.095606 -0.229195 0.337219 -0.895977 0.426838 0.122613
-0.099747 -0.241517 0.353992 -0.898603 0.434131 0.063586
0.357239 0.302781 -0.023843 -0.644417 0.603780 0.469229
0.254360 -0.395531 0.179556 0.187705 -0.364595 -0.912051
0.266417 -0.392203 0.181381 0.323183 -0.214775 -0.921642
0.285498 -0.378325 0.190178 0.688183 -0.003651 -0.725528
0.277555 -0.386465 0.184044 0.510525 -0.122346 -0.851114
0.286635 -0.390733 0.191238 0.723109 -0.144523 -0.675446
0.488069 0.315206 0.007124 -0.032972 0.752266 0.658034
0.476133 0.314743 0.006610 -0.217038 0.748738 0.626327
0.455720 0.308364 0.004053 0.051835 0.613797 0.787760
0.467917 0.305634 0.010791 -0.282328 0.644623 0.710459
0.451458 0.290852 0.020863 -0.068477 0.681520 0.728589
0.466089 0.315171 0.000140 -0.128300 0.670053 0.731141
-0.019122 -0.269016 0.329213 0.779831 -0.623721 0.053256
-0.020094 -0.261857 0.305374 0.716103 -0.486216 -0.500789
-0.019843 -0.270851 0.317136 0.721103 -0.661958 -0.204505
0.207372 -0.159889 0.315336 0.309411 0.223883 0.924198
0.182357 0.447510 -0.040644 0.914087 0.368149 -0.170035
0.167130 0.476802 -0.048239 0.899417 0.371208 -0.230768
0.169874 0.484088 -0.038510 0.700423 0.023230 -0.713350
-0.306734 0.174201 0.114393 -0.919256 -0.383641 0.088256
-0.305906 0.165880 0.102589 -0.977069 -0.212880 0.004193
-0.304603 0.162666 0.117138 -0.979171 -0.193979 0.059966
-0.326679 0.239063 0.102828 -0.974845 -0.209881 0.075017
-0.325261 0.236047 0.113832 -0.979493 -0.199526 0.027991
-0.401565 -0.866330 -0.199517 0.315658 -0.939277 -0.134609
-0.414950 -0.868804 -0.204423 0.056458 -0.998204 0.020052
-0.414188 -0.868121 -0.193156 -0.161026 -0.974358 0.157156
-0.402714 -0.865982 -0.166144 -0.240445 -0.956170 0.167106
-0.415946 -0.865296 -0.225164 0.461678 -0.748876 -0.475435
-0.427581 -0.868637 -0.228873 0.180346 -0.902304 -0.391566
-0.441125 -0.867480 -0.229971 -0.882930 -0.417976 -0.213846
-0.432143 -0.848167 -0.235565 -0.159684 0.482525 -0.861203
-0.435833 -0.846123 -0.225036 -0.863904 0.454514 -0.216997
-0.441048 -0.863376 -0.220282 -0.955506 -0.166747 0.243320
-0.428250 -0.841952 -0.195076 -0.916661 0.197278 0.347584
-0.409472 -0.866265 -0.213971 0.385302 -0.872366 -0.300863
-0.436034 -0.869471 -0.219947 -0.389341 -0.908836 0.149766
-0.435456 -0.855275 -0.207057 -0.911335 -0.022799 0.411035
-0.435983 -0.864957 -0.209459 -0.769666 -0.461798 0.440859
0.048308 0.630495 -0.063332 0.053169 0.959928 0.275156
0.064280 0.621945 -0.029601 0.316452 0.933360 -0.169402
0.063526 0.618238 -0.043211 0.396054 0.914124 -0.086710
0.075437 0.616444 -0.040592 0.226370 0.968444 -0.104273
0.070893 0.618733 -0.055037 0.241176 0.932005 0.270557
0.084220 0.618689 -0.060238 0.236751 0.963342 0.126181
0.011876 -0.072170 -0.054039 0.187476 -0.245082 -0.951203
0.031862 -0.038332 -0.051357 0.302123 -0.404426 -0.863227
0.019258 -0.032258 -0.058214 0.186043 -0.404365 -0.895476
0.008828 -0.037029 -0.056657 0.131018 -0.355607 -0.925407
-0.007131 -0.019903 -0.067323 0.096073 -0.302509 -0.948292
-0.037014 -0.027009 -0.067634 0.079218 -0.351567 -0.932805
-0.026637 -0.026644 -0.066652 0.087634 -0.363992 -0.927270
-0.014750 -0.009772 -0.070335 0.099857 -0.217718 -0.970890
-0.024062 -0.017513 -0.069250 0.071993 -0.258542 -0.963314
-0.072665 0.010708 -0.069712 -0.564665 -0.517173 -0.643184
-0.061935 0.005061 -0.073204 -0.372838 -0.436308 -0.818918
-0.064134 -0.006953 -0.070254 -0.440985 -0.195517 -0.875960
-0.036758 0.003897 -0.075375 -0.019387 -0.500431 -0.865559
-0.028371 -0.006431 -0.072053 0.056663 -0.253713 -0.965619
-0.061253 -0.018784 -0.068489 -0.405260 -0.255260 -0.877842
-0.039112 -0.012126 -0.071395 0.024895 -0.216306 -0.976008
-0.049299 -0.023451 -0.069333 -0.080562 -0.274939 -0.958080
-0.049758 -0.000169 -0.073298 -0.090845 -0.297857 -0.950278
-0.116524 0.521895 0.284975 -0.238385 0.665892 0.706937
-0.127554 0.513071 0.290564 -0.308376 0.635832 0.707546
-0.116256 0.548431 0.265319 -0.253663 0.710887 0.655968
-0.131365 0.544204 0.264485 -0.314304 0.642767 0.698615
-0.134789 0.531703 0.270700 -0.409879 0.463776 0.785437
-0.146833 0.524227 0.267188 -0.511317 0.406711 0.757061
-0.133015 0.521234 0.278605 -0.392355 0.611786 0.686859
-0.141985 0.070068 -0.078319 -0.489372 -0.730734 -0.475965
-0.172504 0.081157 -0.060495 -0.223946 -0.861951 -0.454850
-0.160795 0.090437 -0.086117 -0.557817 -0.585631 -0.588113
-0.152040 0.080799 -0.083404 -0.493919 -0.691044 -0.527733
-0.165727 0.083971 -0.074450 -0.492318 -0.745558 -0.449184
-0.163885 0.116564 -0.114926 -0.450752 -0.609092 -0.652556
0.263162 -0.425498 0.398862 0.973963 0.205747 0.095207
0.253724 -0.404047 0.392961 0.896759 0.441278 0.033129
0.257059 -0.412145 0.404947 0.916651 0.393892 0.067824
-0.319345 0.141723 -0.235579 -0.923439 -0.383727 -0.003735
-0.319625 0.136268 -0.257943 -0.948381 -0.307947 -0.075775
-0.306296 0.116324 -0.257392 -0.669667 -0.674636 -0.310504
-0.308536 0.121485 -0.238565 -0.853953 -0.495294 0.159524
-0.304832 0.111022 -0.248167 -0.774829 -0.629611 -0.056829
-0.313510 0.123851 -0.250835 -0.857344 -0.512225 0.050861
-0.363024 -0.831898 -0.180114 0.684505 0.114245 -0.720001
-0.364094 -0.843787 -0.180311 0.702912 -0.259005 -0.662443
0.204778 0.196607 -0.040181 0.469951 -0.437336 -0.766736
0.203416 0.189655 -0.035928 0.344596 -0.496897 -0.796459
0.207438 0.172752 -0.028154 -0.228627 -0.702840 -0.673606
0.200737 0.173052 -0.027014 0.674233 -0.541207 -0.502498
0.208852 0.179292 -0.033102 -0.122200 -0.403479 -0.906792
0.360191 0.116560 -0.000356 0.341237 -0.934554 0.100824
0.370582 0.120389 -0.007816 0.430545 -0.892996 0.131110
0.381062 0.128046 -0.001630 0.565696 -0.780841 0.265095
-0.295437 0.107740 -0.259592 -0.511645 -0.695352 -0.504684
-0.300257 0.117220 -0.266005 -0.480776 -0.660713 -0.576465
-0.303093 0.125300 -0.272055 -0.438280 -0.582974 -0.684143
-0.311630 -0.867065 -0.177475 0.105098 -0.990221 -0.091743
-0.290028 -0.861273 -0.169950 0.451931 -0.835336 -0.313006
-0.297108 -0.866109 -0.161322 0.227932 -0.959768 -0.163986
-0.285348 -0.863997 -0.156070 0.283937 -0.920969 -0.266824
-0.279143 -0.857234 -0.164995 0.453198 -0.739245 -0.498124
-0.268293 -0.852528 -0.162909 0.511033 -0.608859 -0.606742
-0.272129 -0.867596 -0.130029 -0.019387 -0.999800 0.004900
-0.268980 -0.865630 -0.140886 0.185849 -0.949636 -0.252293
-0.261292 -0.866434 -0.130542 0.229681 -0.961291 -0.152202
-0.250259 -0.861294 -0.129988 0.575245 -0.750190 -0.326049
-0.253144 -0.866585 -0.109567 0.207655 -0.976503 -0.057636
-0.274026 -0.861955 -0.153196 0.272214 -0.857310 -0.436942
-0.201828 0.470458 -0.120664 -0.383066 0.665141 -0.640974
-0.191529 0.466600 -0.128848 -0.479973 0.722900 -0.497034
-0.203229 0.463270 -0.130933 -0.343508 0.806408 -0.481360
-0.195247 0.501842 0.250210 -0.620414 0.548057 0.560999
-0.195944 0.489833 0.258350 -0.612318 0.455697 0.646070
-0.207235 0.481966 0.252428 -0.693152 0.347134 0.631695
0.259149 0.257868 -0.036526 -0.320602 0.139497 -0.936886
-0.210954 0.182556 0.287277 -0.542941 -0.250548 0.801524
-0.213944 0.171682 0.280512 -0.512613 -0.353718 0.782375
-0.198331 0.180621 0.294861 -0.522810 -0.295183 0.799711
0.272405 0.105766 -0.000901 -0.135213 -0.977166 -0.163901
0.293395 0.101868 -0.004511 -0.085010 -0.983093 -0.162175
0.282612 0.104815 -0.009333 -0.240244 -0.939877 -0.242720
0.285764 0.102593 0.004973 -0.200849 -0.972275 -0.119756
0.281182 0.101783 0.017785 -0.231696 -0.960757 -0.152522
0.283093 0.099706 0.029409 -0.199998 -0.979701 0.013669
-0.172483 -0.823224 0.118373 0.791620 0.090858 0.604221
-0.174413 -0.807178 0.117722 0.731459 0.210056 0.648725
-0.184376 -0.833916 0.133149 0.336247 -0.078027 0.938536
-0.183096 -0.817541 0.126372 0.507414 0.202111 0.837665
-0.040393 -0.295569 0.345528 0.441918 -0.780185 -0.442741
-0.036972 -0.287823 0.336810 0.516805 -0.752030 -0.409101
0.162799 -0.381658 0.453043 -0.160578 0.866009 0.473544
0.165232 -0.375411 0.441547 -0.080701 0.912277 0.401545
0.168207 -0.387196 0.464612 -0.117681 0.803409 0.583682
0.177229 -0.378386 0.453625 -0.041077 0.890436 0.453251
0.179150 -0.373965 0.441417 -0.032942 0.934458 0.354546
0.412872 0.274059 0.027753 -0.061388 0.422819 0.904133
0.410935 0.254103 0.034178 -0.205042 0.323332 0.923804
0.417735 0.246193 0.040824 -0.415459 0.339787 0.843764
0.428605 0.270517 0.032718 -0.258599 0.519085 0.814664
0.438873 0.281937 0.026937 -0.139443 0.610573 0.779588
0.416738 0.264154 0.032386 -0.205756 0.370020 0.905952
0.248465 0.282942 -0.031777 0.354890 0.347567 -0.867900
0.246334 0.294977 -0.028705 0.537000 0.282918 -0.794725
0.247953 0.318496 -0.018516 0.704407 0.256549 -0.661811
0.256877 0.288895 -0.023909 0.447445 0.522043 -0.726129
-0.272717 0.309760 -0.214605 -0.047904 0.836857 -0.545322
-0.276197 0.314283 -0.206027 -0.072403 0.873624 -0.481185
-0.280015 0.303784 -0.219847 -0.235912 0.738964 -0.631093
-0.293324 0.311185 -0.204338 -0.388581 0.781982 -0.487348
-0.293185 0.317370 -0.192216 -0.345807 0.807992 -0.477040
-0.285453 0.322220 -0.188532 -0.212573 0.825987 -0.522071
-0.290525 0.334201 -0.163520 -0.231776 0.914628 -0.331264
-0.284138 0.328080 -0.180536 -0.180070 0.848978 -0.496800
-0.276890 0.320734 -0.194117 -0.095554 0.861740 -0.498270
-0.263085 0.306210 -0.218254 -0.097987 0.838250 -0.536410
0.439823 0.293820 0.018389 -0.018434 0.577247 0.816361
0.428938 0.291363 0.020041 -0.090954 0.553451 0.827900
0.420402 0.298471 0.013765 -0.046113 0.498561 0.865627
0.404762 0.312896 0.002037 -0.307663 0.664457 0.681059
0.405985 0.281983 0.025047 0.015237 0.444415 0.895692
0.404858 0.292414 0.019038 -0.038289 0.554078 0.831584
0.415626 0.287949 0.019651 0.012651 0.515882 0.856566
-0.165079 -0.266851 -0.099506 0.562351 0.232637 -0.793499
-0.154498 -0.266552 -0.090658 0.688548 0.175051 -0.703746
-0.167035 -0.278960 -0.103593 0.572938 0.102981 -0.813104
0.096528 -0.409316 0.452625 -0.587178 0.656617 0.473367
0.109680 -0.399404 0.452854 -0.473813 0.708364 0.523184
0.108816 -0.391692 0.440141 -0.473592 0.781336 0.406479
0.024319 0.440714 0.342862 0.018873 0.580037 0.814372
0.019889 0.431710 0.349051 -0.026163 0.444003 0.895643
-0.339143 -0.767359 -0.006616 -0.750082 0.501229 0.431447
-0.346051 -0.761202 -0.030318 -0.648382 0.662315 0.375420
-0.352385 -0.769420 -0.027405 -0.703557 0.582582 0.406947
-0.361165 -0.773980 -0.037220 -0.726219 0.600618 0.334461
0.145169 0.555707 -0.064090 0.628090 0.153203 -0.762910
0.142157 0.566652 -0.062617 0.718251 0.369678 -0.589452
0.157087 0.548326 -0.053108 0.845572 0.232911 -0.480375
0.151222 0.558175 -0.056393 0.783443 0.360837 -0.505978
0.161974 0.542833 -0.045231 0.857902 0.291673 -0.423004
-0.029815 -0.169419 -0.033404 -0.139453 -0.584698 -0.799175
-0.031087 -0.158452 -0.038139 -0.167575 -0.242233 -0.955637
-0.018972 -0.159255 -0.036825 0.133810 -0.286892 -0.948571
-0.013259 -0.177133 -0.022512 0.133988 -0.556170 -0.820196
-0.016907 -0.169441 -0.030633 0.163316 -0.610629 -0.774893
0.138412 0.576665 -0.059191 0.722768 0.609601 -0.325566
0.149417 0.567307 -0.043346 0.774639 0.625152 -0.095499
0.155794 0.556827 -0.045980 0.856763 0.459922 -0.233299
0.147157 0.567295 -0.053265 0.792218 0.539206 -0.285742
0.006793 -0.222058 0.020402 0.378034 -0.844452 -0.379462
0.017409 0.632035 -0.085558 0.027034 0.987737 0.153769
0.029705 0.630580 -0.081519 -0.050188 0.988410 0.143274
0.015985 0.632742 -0.097562 0.047144 0.995787 -0.078646
-0.393657 -0.851301 -0.212143 0.714090 -0.212600 -0.666991
-0.403067 -0.844642 -0.221535 0.612990 0.136691 -0.778177
0.065879 -0.497757 0.493973 -0.883518 0.268765 0.383617
0.071507 -0.478899 0.490163 -0.785541 0.420620 0.453877
0.066851 -0.488203 0.489596 -0.856453 0.294872 0.423719
0.063028 -0.481902 0.478574 -0.873619 0.298793 0.384074
0.069573 -0.470402 0.479176 -0.766207 0.461763 0.446879
-0.001133 -0.091077 -0.048240 0.150098 -0.359520 -0.920986
-0.008737 -0.082170 -0.053281 0.102436 -0.375814 -0.921016
-0.289994 -0.675343 0.063118 -0.523838 -0.014881 0.851688
-0.280581 -0.679870 0.068651 -0.432150 -0.031270 0.901260
0.107796 -0.461042 0.282994 -0.609735 -0.020824 -0.792331
0.122947 -0.456228 0.270596 -0.661750 -0.049972 -0.748057
0.117116 -0.465058 0.276622 -0.616372 -0.061387 -0.785059
0.126406 -0.469023 0.269712 -0.581465 -0.172810 -0.795006
0.132852 -0.458455 0.261876 -0.559515 -0.092286 -0.823667
0.026617 -0.155363 -0.023841 0.477241 -0.244665 -0.844026
-0.346862 -0.375524 -0.139827 -0.865050 0.498493 0.056510
-0.340339 -0.366959 -0.145994 -0.772248 0.626370 -0.106268
-0.338227 -0.369128 -0.160021 -0.621918 0.621540 -0.476347
0.056743 -0.574941 0.490978 -0.985864 -0.152362 0.069699
0.055159 -0.561265 0.494170 -0.990191 -0.051135 0.130024
0.022475 0.518267 0.303602 -0.010747 0.344482 0.938731
0.012303 0.511189 0.305484 0.079581 0.522302 0.849039
-0.019116 0.614368 0.192974 0.100453 0.891122 0.442505
-0.029463 0.618021 0.185572 0.004989 0.926627 0.375949
-0.024305 0.621607 0.174753 0.018582 0.948747 0.315490
-0.035656 0.622340 0.173992 -0.003118 0.946212 0.323533
-0.004526 -0.172253 -0.025004 0.179491 -0.591442 -0.786116
0.006116 -0.175791 -0.019205 0.258058 -0.566195 -0.782834
-0.023191 -0.087598 -0.052091 0.088181 -0.395419 -0.914258
-0.003884 -0.038409 0.315661 0.040829 -0.280445 0.959001
-0.004219 -0.048408 0.311627 0.051904 -0.251135 0.966560
-0.015466 -0.054253 0.310510 -0.040411 -0.162761 0.985838
0.021879 -0.047182 0.308392 0.203799 -0.263920 0.942768
0.008547 -0.053575 0.309236 0.146513 -0.156725 0.976714
-0.234379 -0.677216 0.079282 -0.012983 0.097224 0.995178
-0.218389 -0.706680 0.079513 0.125788 0.021057 0.991834
-0.205457 -0.699550 0.076305 0.361644 0.107378 0.926112
-0.217696 -0.693559 0.078175 0.185337 0.055085 0.981130
-0.219123 -0.679490 0.078794 0.236950 0.086695 0.967646
-0.222360 -0.667427 0.077364 0.208299 0.137197 0.968395
0.238607 0.122450 -0.013894 -0.415548 -0.803809 -0.425688
0.228799 0.128080 -0.014605 -0.490623 -0.777051 -0.394310
0.226498 0.134538 -0.025529 -0.550375 -0.694566 -0.463321
-0.286007 0.119967 -0.173691 -0.340607 -0.893735 0.291934
-0.273401 0.114984 -0.173755 -0.373566 -0.875236 0.307262
-0.247437 0.098082 -0.204333 -0.013516 -0.851075 0.524870
-0.262252 0.111755 -0.169851 -0.213093 -0.903378 0.372155
-0.263635 0.108405 -0.182762 -0.279459 -0.933192 0.225952
0.262890 -0.765068 0.423324 -0.390168 -0.365163 -0.845237
0.127635 -0.488741 0.273334 -0.355638 -0.352213 -0.865718
0.263974 -0.807960 0.326295 -0.584198 -0.739800 -0.333778
0.281628 -0.809306 0.335483 0.796942 -0.466101 0.384230
0.280371 -0.804923 0.340716 0.631873 -0.594279 0.497562
0.265964 -0.808679 0.336946 -0.237631 -0.947789 0.212667
-0.323721 0.176669 -0.261862 -0.990387 -0.004192 -0.138257
-0.326084 0.174870 -0.247932 -0.980997 -0.073633 -0.179510
-0.324783 0.161335 -0.245421 -0.969872 -0.215015 -0.114533
-0.328241 0.169049 -0.233432 -0.968881 -0.215948 -0.120978
-0.328310 0.199674 -0.241190 -0.975169 0.009191 -0.221271
-0.229177 0.122533 -0.048599 -0.731050 -0.535075 -0.423392
-0.213958 0.116408 -0.067132 -0.648006 -0.544622 -0.532423
-0.220700 0.117052 -0.056408 -0.730636 -0.550654 -0.403671
-0.211688 0.107505 -0.057314 -0.614101 -0.681277 -0.398424
-0.220019 0.110862 -0.045443 -0.695839 -0.636212 -0.333230
-0.334506 -0.586062 0.031979 -0.819128 -0.130815 0.558496
-0.333389 -0.598527 0.031432 -0.816126 -0.053055 0.575434
-0.327727 -0.606997 0.039379 -0.772711 -0.097996 0.627147
-0.319889 -0.606599 0.047439 -0.698541 -0.126556 0.704290
-0.326291 -0.593577 0.043267 -0.765135 -0.105311 0.635199
0.266477 0.265179 -0.042443 -0.207534 0.424448 -0.881348
0.264210 0.245682 -0.040272 -0.344934 0.217533 -0.913072
0.257694 0.237372 -0.042802 -0.102057 0.431588 -0.896279
0.279898 0.280933 -0.019367 0.409949 0.692363 -0.593780
0.292037 0.280121 -0.010816 0.463548 0.704489 -0.537417
0.312918 0.263363 -0.021181 -0.050284 0.930278 -0.363394
-0.200551 0.375353 -0.173459 -0.524516 0.128033 -0.841719
-0.207093 0.379984 -0.168025 -0.556980 0.152479 -0.816409
-0.198005 0.364640 -0.175146 -0.512444 0.097313 -0.853189
-0.198010 0.352132 -0.176927 -0.521001 -0.037373 -0.852737
-0.215454 0.377289 -0.161877 -0.540360 0.197160 -0.818009
-0.224966 0.377124 -0.156126 -0.557528 0.292447 -0.776941
0.213347 0.403170 -0.016949 0.698240 0.714597 0.042564
0.206312 0.411442 -0.025046 0.731193 0.679846 0.056272
0.211459 0.406172 -0.031771 0.798836 0.597926 -0.065920
0.217007 0.395193 -0.033625 0.865937 0.440960 -0.236025
0.213442 0.399601 -0.043606 0.868025 0.446919 -0.216326
0.206125 0.411257 -0.042904 0.800843 0.575021 -0.167338
0.200383 0.418240 -0.033164 0.772131 0.635330 -0.013005
0.164680 0.490607 -0.046879 0.840927 0.084070 -0.534578
0.157096 0.509154 -0.055022 0.741631 0.085135 -0.665384
0.165450 0.501401 -0.048457 0.618616 -0.104668 -0.778690
0.164707 0.512387 -0.049567 0.568306 0.039330 -0.821877
0.150891 0.529033 -0.057726 0.682964 0.032715 -0.729719
0.160878 0.524527 -0.050210 0.600588 0.075759 -0.795962
0.277843 -0.776791 0.340324 0.966015 0.253165 0.052172
0.273841 -0.776569 0.355985 0.939820 0.122444 0.318975
0.270521 -0.786028 0.365592 0.894228 -0.107117 0.434605
0.274549 -0.793292 0.357552 0.833857 -0.262112 0.485777
0.277329 -0.786920 0.347075 0.949200 0.110527 0.294622
-0.068169 0.620178 -0.077074 -0.356941 0.883667 -0.302863
-0.072646 0.613714 -0.088517 -0.511558 0.738331 -0.439518
-0.070152 0.605827 -0.100096 -0.458946 0.648059 -0.607773
-0.061290 0.600869 -0.110072 -0.598828 0.685711 -0.413770
-0.071424 0.593381 -0.109194 -0.451586 0.813800 -0.365787
-0.081956 0.596901 -0.100595 -0.357077 0.756904 -0.547350
-0.339674 -0.864455 -0.224945 -0.359349 -0.921076 0.149960
-0.351293 -0.848179 -0.216769 -0.989741 0.115139 0.084591
-0.344849 -0.859731 -0.215084 -0.696132 -0.695307 0.178743
0.042894 0.245002 0.350303 0.170657 -0.169361 0.970666
0.031368 0.246583 0.352665 0.211344 -0.137736 0.967658
0.023981 0.237284 0.353339 0.016955 -0.254181 0.967008
-0.000676 -0.116854 -0.044908 0.186358 -0.245444 -0.951330
0.034730 -0.107668 -0.032721 0.446454 -0.059585 -0.892821
0.022464 -0.127453 -0.032481 0.322974 -0.411379 -0.852323
0.029479 -0.117191 -0.034363 0.405416 -0.218573 -0.887617
-0.012373 -0.092646 -0.048348 0.082579 -0.325907 -0.941788
0.008433 -0.096226 -0.043358 0.262536 -0.234473 -0.936001
0.006644 -0.082982 -0.050840 0.167145 -0.405322 -0.898764
-0.201990 -0.183542 -0.073169 0.213949 0.637859 -0.739839
-0.187639 -0.189908 -0.072039 0.310802 0.549424 -0.775587
-0.197662 -0.194087 -0.081124 0.306438 0.555900 -0.772703
-0.210746 -0.189640 -0.081913 0.174688 0.624049 -0.761608
0.050982 -0.053137 -0.035262 0.637769 -0.103250 -0.763276
0.024894 -0.071111 -0.050911 0.326923 -0.209201 -0.921605
-0.020255 -0.076706 -0.056358 0.091187 -0.285115 -0.954146
-0.022762 -0.065110 -0.058691 0.060656 -0.047387 -0.997033
0.008094 -0.062902 -0.056461 0.174143 -0.056499 -0.983098
-0.011333 -0.057341 -0.058575 0.033819 0.047561 -0.998296
-0.023488 -0.054540 -0.057613 0.022667 0.073061 -0.997070
0.063065 -0.068871 -0.024579 0.854103 -0.006306 -0.520065
0.136747 -0.599432 0.397433 0.142133 -0.907448 -0.395394
0.152048 -0.596157 0.392879 0.181459 -0.844478 -0.503914
0.156973 -0.601385 0.403449 0.053953 -0.860175 -0.507137
0.147414 -0.588724 0.379918 0.408338 -0.780006 -0.474183
0.158568 0.097936 -0.031129 0.783498 -0.517391 -0.344147
0.152182 0.086400 -0.030755 0.784684 -0.485555 -0.385366
0.273175 0.153814 0.142810 0.339014 -0.510531 0.790207
-0.035722 0.613003 0.196302 -0.036014 0.871643 0.488817
-0.043417 0.618033 0.184299 -0.042718 0.928151 0.369745
-0.052443 0.614761 0.191769 -0.079821 0.885981 0.456801
-0.047546 0.622147 0.172908 -0.064648 0.942192 0.328779
-0.057898 0.619636 0.177328 -0.103720 0.939216 0.327284
0.271586 0.312753 0.016631 0.638749 0.651590 -0.409182
0.278156 0.311854 0.024912 0.608178 0.707618 -0.359715
0.280814 0.318356 0.043382 0.565836 0.767299 -0.301797
0.285138 0.310623 0.033945 0.580565 0.719404 -0.381317
0.286355 0.304135 0.025054 0.598691 0.712115 -0.366690
0.035835 0.289785 0.359736 0.228515 -0.222114 0.947864
0.044559 0.302601 0.359791 0.311222 0.000103 0.950337
0.060014 0.300040 0.353488 0.345011 0.040157 0.937739
0.232923 0.118849 -0.003212 -0.420487 -0.814273 -0.400187
0.222266 0.128359 -0.006111 -0.560134 -0.727230 -0.396720
-0.303649 0.176702 0.036537 -0.905961 -0.299637 -0.299087
-0.312278 0.196397 0.042771 -0.952911 -0.265325 -0.146844
-0.308125 0.199800 0.027939 -0.925256 -0.352669 -0.139733
-0.306533 0.188886 0.033361 -0.912841 -0.319590 -0.254132
0.217181 0.184884 -0.033023 -0.139536 -0.235936 -0.961698
0.089404 -0.747367 0.522829 -0.012937 -0.960876 0.276677
0.086676 -0.751084 0.510859 -0.047682 -0.962730 0.266227
0.067842 -0.745397 0.520027 -0.554378 -0.826150 -0.100703
-0.341741 -0.846815 -0.176566 -0.808054 0.308957 -0.501591
-0.323735 -0.237650 -0.079120 -0.588937 0.481683 -0.648949
-0.306102 0.170913 0.062365 -0.980186 -0.197456 -0.015682
-0.299279 0.164407 0.036315 -0.892486 -0.328555 -0.309064
-0.304066 0.168051 0.047993 -0.931156 -0.302864 -0.203031
-0.180499 0.422578 -0.157536 -0.427980 0.529805 -0.732216
-0.193156 -0.641852 -0.110092 0.421182 -0.331496 -0.844225
-0.202455 -0.634732 -0.116650 0.422424 -0.332968 -0.843025
0.051906 0.251808 0.350229 0.221469 -0.128285 0.966693
-0.162967 0.011266 0.279405 -0.566390 0.022432 0.823832
-0.169897 0.000184 0.275680 -0.607129 -0.031485 0.793979
-0.152562 0.015373 0.285507 -0.501154 -0.023934 0.865027
-0.176776 0.006919 0.268500 -0.657802 0.036845 0.752289
-0.169944 0.016214 0.273636 -0.629476 -0.038936 0.776044
0.320307 0.267397 -0.010748 -0.097379 0.979176 -0.178136
-0.146447 0.461811 -0.150285 -0.200223 0.308074 -0.930054
-0.154147 0.471797 -0.148969 0.021906 0.082098 -0.996383
0.173938 0.526267 -0.039717 0.706434 0.358916 -0.610024
0.180114 0.514482 -0.037676 0.783524 0.096647 -0.613799
0.169872 0.536660 -0.036015 0.795334 0.521353 -0.309249
0.240239 -0.796596 0.374185 -0.067614 -0.953489 0.293747
0.221967 -0.787969 0.397039 -0.062658 -0.967553 0.244775
0.219615 -0.790497 0.383250 -0.246706 -0.960210 0.130895
0.227482 -0.794219 0.367870 -0.368306 -0.927187 -0.068368
0.212900 -0.788980 0.373842 -0.468980 -0.846748 -0.251150
0.223268 -0.779998 0.348019 -0.692771 -0.358322 -0.625839
-0.101098 0.569556 -0.114826 -0.631120 0.536803 -0.559938
-0.108516 0.559383 -0.117425 -0.547070 0.630083 -0.551098
-0.096244 0.581263 -0.109588 -0.537081 0.607876 -0.584834
-0.029570 0.624079 -0.101396 -0.194043 0.980919 -0.012038
-0.005100 0.628279 -0.105168 -0.228252 0.963267 -0.141485
-0.007640 0.626524 -0.092077 -0.315281 0.941440 0.119535
-0.259075 0.365499 0.263888 -0.692595 0.302523 0.654822
-0.265946 0.372640 0.253143 -0.683298 0.301134 0.665148
-0.256503 0.353869 0.271497 -0.670493 0.102918 0.734742
-0.267528 0.355363 0.259747 -0.699086 0.195961 0.687661
0.275846 0.237939 0.172796 0.506292 -0.083964 0.858265
0.279187 0.214475 0.165778 0.588501 -0.171091 0.790187
0.287320 0.235959 0.165288 0.651200 -0.076678 0.755023
0.289210 0.223534 0.160269 0.640682 -0.199523 0.741429
0.280598 0.226700 0.168154 0.531139 -0.191020 0.825471
-0.332032 -0.449548 -0.174588 -0.473106 -0.354954 -0.806336
-0.345589 -0.383729 -0.163407 -0.765184 0.324895 -0.555821
-0.106651 -0.225695 -0.029993 0.769182 0.117765 -0.628085
0.254195 0.177846 0.166338 0.191397 -0.386019 0.902417
0.092245 0.004539 0.003941 0.722854 -0.374004 -0.581036
0.098969 0.000772 0.011165 0.680469 -0.194324 -0.706541
0.096322 -0.009492 0.010153 0.733859 -0.030223 -0.678629
0.116772 -0.000068 0.029800 0.761801 -0.089696 -0.641572
0.111698 -0.009999 0.025094 0.722659 -0.015245 -0.691036
0.081015 -0.007462 -0.010561 0.906667 -0.011898 -0.421680
0.087751 -0.010980 -0.001067 0.801883 -0.001314 -0.597480
0.093258 -0.021166 0.005724 0.765262 0.087368 -0.637762
0.112215 0.007842 0.264492 0.759638 -0.009298 0.650280
0.110905 -0.003740 0.265206 0.743062 -0.092383 0.662816
0.117797 -0.012372 0.255813 0.775850 -0.109186 0.621398
-0.082486 0.052652 -0.079598 -0.279595 -0.495787 -0.822206
-0.092498 0.047219 -0.072605 -0.330458 -0.475677 -0.815186
0.207972 -0.581579 0.396578 0.573056 -0.747402 -0.336150
0.198218 -0.590358 0.401635 0.526226 -0.772195 -0.356091
0.200542 -0.582634 0.388090 0.476293 -0.780599 -0.404735
-0.257231 -0.418289 -0.162929 0.619074 0.056933 -0.783266
-0.266445 -0.424847 -0.170238 0.558204 -0.031554 -0.829104
-0.271069 -0.414102 -0.172816 0.593814 0.017842 -0.804405
-0.278937 -0.423256 -0.177973 0.511838 -0.059156 -0.857043
-0.291119 -0.421075 -0.184106 0.280111 -0.037688 -0.959227
-0.206417 -0.334677 0.145708 0.072695 -0.654668 0.752413
-0.219226 -0.336691 0.145230 -0.013335 -0.589054 0.807984
-0.229761 -0.340945 0.141813 -0.136880 -0.578130 0.804382
-0.414657 -0.864776 -0.181674 -0.426813 -0.865291 0.262874
-0.413843 -0.861264 -0.169558 -0.641826 -0.691244 0.332027
-0.427033 -0.865992 -0.200515 -0.557968 -0.734324 0.386574
-0.338815 0.357086 0.089874 -0.988087 0.136388 0.071286
-0.336441 0.366917 0.096035 -0.975201 0.191351 0.111214
-0.337888 0.355494 0.103710 -0.981563 0.156555 0.109653
-0.339741 0.345704 0.094064 -0.992568 0.101811 0.066659
0.124057 -0.020128 0.246297 0.634872 0.278887 0.720528
0.127308 -0.031903 0.254320 0.465606 0.452084 0.760810
0.090583 -0.041586 0.274155 0.504409 0.014078 0.863350
0.111225 -0.048175 0.271171 0.341562 0.424154 0.838706
0.117196 -0.038166 0.262830 0.386767 0.405102 0.828434
0.196916 0.297080 0.261508 0.876124 -0.089594 0.473688
-0.148449 0.607591 0.140386 -0.520326 0.800000 0.298767
-0.142008 0.612950 0.131162 -0.407024 0.897910 0.167597
0.225431 0.116265 0.029599 -0.361178 -0.928266 -0.088732
0.230814 0.113122 0.020733 -0.348161 -0.936194 -0.048224
0.236598 0.110890 0.030857 -0.309144 -0.946010 -0.097446
0.241989 0.111253 0.018687 -0.252105 -0.961627 -0.108248
0.241248 0.108210 0.042425 -0.138062 -0.989941 -0.030923
-0.287273 0.164326 -0.306734 -0.764785 -0.085827 -0.638543
-0.298356 0.163679 -0.297220 -0.568590 -0.279415 -0.773713
-0.305210 0.176694 -0.297964 -0.519859 -0.185503 -0.833868
0.204811 0.159928 -0.015232 -0.141171 -0.687484 -0.712346
0.201278 0.143812 0.018238 -0.162735 -0.942523 -0.291834
0.201198 0.140096 0.024332 -0.526552 -0.742317 -0.414378
0.203227 0.154488 -0.005057 -0.476635 -0.745485 -0.465910
0.292792 0.264485 -0.030425 0.367975 0.762218 -0.532559
0.279806 0.265501 -0.037967 0.306394 0.721973 -0.620385
-0.186162 -0.268212 -0.110068 0.368882 0.257419 -0.893119
-0.210151 -0.293041 -0.126751 0.429333 0.149545 -0.890679
-0.197952 -0.271841 -0.116112 0.388241 0.225371 -0.893575
-0.194361 -0.256402 -0.110419 0.379806 0.325244 -0.866004
-0.150945 -0.340398 -0.063409 0.848795 -0.413174 -0.329900
-0.149270 -0.347301 -0.054405 0.848050 -0.331448 -0.413466
-0.163361 -0.357212 -0.072766 0.842749 -0.400561 -0.359618
-0.151312 -0.356786 -0.050964 0.848316 -0.365495 -0.383110
-0.158221 -0.362870 -0.060022 0.857840 -0.311425 -0.408810
-0.155175 -0.367686 -0.048002 0.871407 -0.381690 -0.308161
-0.175607 -0.378768 -0.081312 0.824479 -0.303159 -0.477837
-0.164039 -0.367996 -0.069217 0.854382 -0.261615 -0.448986
0.184984 0.119440 0.002068 0.790488 -0.572453 -0.217774
0.182561 0.108213 0.016252 0.805545 -0.576285 -0.137811
0.182068 0.110403 0.003351 0.747382 -0.630110 -0.210669
0.181111 0.125328 -0.023598 0.772409 -0.500272 -0.391295
0.181179 0.118567 -0.017455 0.827797 -0.478054 -0.293626
0.180106 0.130740 -0.033306 0.712151 -0.573019 -0.405574
-0.372082 -0.859397 -0.072972 0.139007 -0.988990 -0.050760
-0.368019 -0.859002 -0.086201 0.098491 -0.988051 0.118553
-0.387002 -0.862655 -0.076353 0.246391 -0.968832 -0.025615
-0.378501 -0.860945 -0.084104 0.211840 -0.972136 0.100373
-0.263347 0.291286 -0.240529 -0.125118 0.831888 -0.540655
-0.161924 0.483203 -0.147858 -0.241496 0.351008 -0.904695
-0.215992 0.551264 0.154247 -0.758440 0.622194 0.194018
-0.208976 0.562271 0.146365 -0.749734 0.635661 0.183939
-0.210207 0.561199 0.129917 -0.781272 0.615693 0.102646
-0.205564 0.569388 0.134770 -0.778845 0.621647 0.083396
-0.218416 0.554681 0.125335 -0.601031 0.723895 0.338729
-0.235598 0.544649 0.113081 -0.756832 0.640853 0.128502
-0.131581 0.531821 -0.125279 -0.715385 0.627333 -0.307698
-0.215843 0.051416 0.032868 -0.937903 -0.158058 -0.308799
-0.211174 0.052642 0.018577 -0.825188 -0.315946 -0.468233
-0.203709 0.053674 0.007964 -0.673483 -0.525281 -0.520096
