0.041979 0.090314 -0.008185
-0.073736 0.144491 -0.010002
-0.048376 0.145109 0.007854
0.046557 0.076026 0.012891
-0.084164 0.097152 -0.003412
-0.086435 0.108728 0.017958
-0.084111 0.107714 0.024880
-0.062230 0.151466 -0.016226
-0.048023 0.144604 0.005451
-0.071960 0.162461 -0.041974
0.046026 0.079028 0.020097
0.036723 0.077196 -0.013200
0.033592 0.079454 -0.018125
-0.084106 0.100349 -0.003343
-0.084482 0.102377 -0.000560
-0.089768 0.137686 0.033103
-0.009652 0.172198 -0.022285
-0.079452 0.094921 -0.010096
-0.015775 0.036189 0.051493
-0.050984 0.142943 0.016618
-0.072770 0.064102 0.017233
-0.049405 0.142854 0.007712
0.046159 0.080807 0.005235
0.044756 0.078487 -0.001294
0.039033 0.078498 -0.010903
-0.069126 0.141135 -0.008512
0.044721 0.085464 0.023503
0.046308 0.082214 0.009908
0.045391 0.081894 0.001981
0.043353 0.081221 -0.003823
0.040042 0.082918 -0.011871
0.037929 0.082130 -0.014950
-0.089451 0.095087 0.016418
-0.087645 0.125827 -0.000552
-0.083408 0.142882 0.002896
-0.049212 0.143016 0.004191
-0.050044 0.141302 0.003722
-0.063382 0.156325 -0.012871
0.046138 0.080463 0.015674
0.045837 0.085915 0.006235
0.044629 0.083806 0.001091
0.041245 0.080256 -0.007797
-0.086906 0.110592 0.008728
-0.093980 0.126814 0.016843
-0.062168 0.163735 -0.039172
-0.063868 0.167329 -0.038087
-0.062428 0.155938 -0.035375
-0.063857 0.179630 -0.058889
-0.037341 0.128020 0.005475
-0.064970 0.180085 -0.059990
-0.062784 0.178341 -0.059086
-0.044708 0.128922 0.002098
-0.064066 0.177262 -0.054849
-0.067602 0.180803 -0.055125
-0.070039 0.181421 -0.056251
-0.032519 0.125249 0.019762
-0.017555 0.128011 0.018043
-0.067589 0.178048 -0.051279
-0.073480 0.180801 -0.054020
-0.070905 0.181180 -0.053287
-0.042869 0.129202 0.007957
-0.026500 0.122864 0.023299
-0.068173 0.156299 0.023866
-0.045205 0.168092 0.002113
-0.036920 0.173110 -0.000838
-0.046580 0.130809 0.023119
-0.085838 0.153261 0.013766
-0.065851 0.154770 -0.004398
-0.048593 0.160783 0.007541
-0.066794 0.173629 -0.045998
-0.027392 0.120191 0.028401
-0.066679 0.163980 -0.018370
-0.074042 0.155913 0.023812
-0.047253 0.134536 0.011393
-0.070616 0.156068 0.024761
-0.030340 0.125423 0.017172
0.050004 0.070309 0.024081
-0.012329 0.183876 -0.026482
-0.008530 0.099781 0.048918
-0.065047 0.173521 -0.048862
-0.064793 0.152850 0.034531
-0.057873 0.155513 0.015052
0.013210 0.125342 0.030718
-0.065410 0.155753 0.010654
-0.045062 0.131252 0.010596
-0.070847 0.177596 -0.047782
-0.074185 0.177800 -0.046361
-0.073818 0.180026 -0.050166
-0.067586 0.154994 0.001049
-0.055826 0.153324 0.027351
-0.052391 0.151567 0.015366
-0.058172 0.157481 0.006859
0.015525 0.127531 0.024993
-0.014127 0.185235 -0.025232
-0.064580 0.169958 -0.043434
-0.061118 0.153064 0.033269
-0.084284 0.110715 0.026769
-0.087349 0.093992 0.005372
-0.043803 0.129754 0.012449
-0.066781 0.163344 -0.057671
-0.038936 0.125057 -0.007395
0.009810 0.130054 0.022728
-0.071394 0.175598 -0.043793
-0.064970 0.154779 0.029598
-0.092954 0.118539 0.034278
-0.080851 0.143690 -0.001140
-0.069305 0.154263 0.031360
-0.075599 0.152449 -0.013296
-0.087587 0.096254 0.003344
-0.044188 0.126265 0.019836
-0.015280 0.186597 -0.023930
-0.084033 0.152646 0.008132
-0.065429 0.169736 -0.039787
-0.091047 0.113675 0.010925
-0.070394 0.155904 0.002107
-0.091180 0.148505 0.014621
-0.087999 0.097997 0.005226
-0.049014 0.126225 -0.006535
-0.016685 0.187363 -0.021197
-0.068188 0.171688 -0.038399
-0.077521 0.174752 -0.042946
-0.012204 0.098093 0.050496
-0.075404 0.179213 -0.052725
-0.086713 0.153123 0.019242
-0.045464 0.126086 0.023508
-0.050167 0.136886 0.021875
-0.024381 0.122330 0.026421
0.000479 0.123974 0.033854
-0.043799 0.127340 0.018874
-0.018112 0.186235 -0.017589
-0.035636 0.127811 0.009071
-0.072350 0.173608 -0.038467
-0.084862 0.091757 -0.004055
-0.077096 0.093626 -0.012814
-0.089001 0.096286 0.008179
-0.092572 0.126501 0.029578
-0.031395 0.122054 0.025005
-0.088472 0.151566 0.012615
-0.043384 0.124469 0.022388
0.000967 0.098720 0.050924
-0.034955 0.122952 0.025958
-0.054428 0.153682 0.019301
-0.074851 0.174847 -0.040818
0.058168 0.071317 0.010192
0.055127 0.072986 0.009800
-0.094758 0.123960 0.019524
-0.043933 0.166962 0.003757
-0.001251 0.130450 0.022063
0.032798 0.116073 0.001152
-0.073336 0.145904 -0.014553
-0.089782 0.098455 0.015886
-0.094338 0.121768 0.024112
-0.092055 0.115735 0.037010
-0.088949 0.127982 0.003704
-0.042860 0.122483 0.025698
-0.081797 0.151281 0.032523
-0.067087 0.150126 0.038309
-0.058346 0.155944 0.010835
-0.055950 0.155955 0.011413
-0.076987 0.111315 -0.004757
-0.028613 0.122233 0.023076
-0.068186 0.156570 -0.003393
-0.021731 0.185210 -0.018103
-0.067079 0.156304 0.016106
-0.069868 0.171380 -0.033895
-0.065270 0.156213 0.023117
-0.071900 0.159983 -0.006968
-0.073578 0.157550 -0.003697
0.055184 0.073268 0.015892
0.053034 0.072985 0.008542
0.047795 0.073525 0.012899
-0.029686 0.118686 0.029962
-0.004212 0.127278 0.029853
-0.086068 0.096099 0.000201
-0.088457 0.092877 0.007735
-0.089493 0.093326 0.020660
-0.080493 0.111448 -0.001082
-0.068470 0.151120 0.037456
-0.030573 0.125985 0.013208
-0.046428 0.132565 0.019469
0.003835 0.100010 0.046724
-0.074641 0.172548 -0.036067
-0.032986 0.126916 0.013255
-0.049595 0.134303 0.025867
-0.054552 0.154630 0.013669
0.038563 0.109373 0.008939
0.035462 0.113192 0.003571
0.023201 0.124102 0.002335
0.020025 0.125780 0.001079
-0.075348 0.148579 -0.015522
-0.092592 0.117504 0.040694
-0.061187 0.155964 0.016284
-0.045075 0.129795 0.020085
-0.020744 0.185781 -0.014310
-0.021549 0.185910 -0.015049
-0.023856 0.184317 -0.014510
-0.065841 0.168500 -0.032305
-0.076665 0.170699 -0.033878
-0.020656 0.123968 0.025179
-0.074792 0.156215 0.014361
0.057257 0.072136 0.016236
0.007949 0.129081 0.026629
-0.038782 0.128079 0.013474
-0.090644 0.134262 0.010933
-0.090801 0.139250 0.020685
-0.092276 0.117319 0.009050
-0.074218 0.156462 -0.001243
-0.069513 0.169186 -0.026799
-0.073287 0.171118 -0.030972
-0.072409 0.156339 0.020017
-0.000178 0.101409 0.044599
0.052408 0.073735 0.014880
-0.013773 0.124221 0.031134
-0.056259 0.154360 0.024167
-0.084150 0.106630 0.001352
0.015046 0.119362 0.035212
-0.079465 0.154636 0.009319
-0.045181 0.129890 0.005454
0.019898 0.121832 0.031510
-0.025787 0.182939 -0.012602
-0.059419 0.154614 0.027620
-0.064977 0.165569 -0.026149
0.017977 0.124655 0.027533
-0.069614 0.152655 0.034953
0.013606 0.126913 0.028157
0.058085 0.069641 0.020324
0.048566 0.073482 0.013893
-0.038108 0.125366 0.022420
-0.076611 0.154877 0.005897
-0.072140 0.155622 0.003861
-0.061698 0.156019 0.021623
-0.082943 0.111875 0.001000
-0.000868 0.129141 0.026618
-0.024639 0.183188 -0.010451
-0.057535 0.155312 0.019320
0.003072 0.130558 0.023069
0.054779 0.072380 0.019939
0.046496 0.075110 0.016069
-0.001334 0.099979 0.049016
0.013462 0.129665 0.005084
-0.086584 0.104509 0.006331
-0.087226 0.110367 0.017936
-0.030384 0.179352 -0.012440
-0.081735 0.154919 0.016074
-0.026093 0.182918 -0.011023
-0.072339 0.169805 -0.026780
-0.062317 0.155437 0.025954
-0.005231 0.130640 0.019110
0.047143 0.073601 0.016247
-0.005154 0.124252 0.033649
-0.056903 0.157069 0.009066
-0.041812 0.126894 0.018123
0.027316 0.122009 0.006356
0.019507 0.126957 0.005798
-0.074539 0.178094 -0.053512
-0.072532 0.179128 -0.055476
-0.080465 0.102572 -0.006573
-0.060270 0.155850 0.010194
0.022150 0.122006 0.029706
-0.029861 0.180199 -0.009900
-0.075409 0.168834 -0.027513
-0.054345 0.152490 0.025017
0.053126 0.071216 0.022685
0.047426 0.072043 0.018629
0.046204 0.073892 0.018752
-0.078758 0.152960 0.002221
-0.053305 0.156295 0.010927
-0.010121 0.127916 0.026212
-0.076041 0.154689 0.000099
-0.043417 0.128423 0.015792
0.036685 0.111727 0.017324
0.033143 0.116764 0.009473
0.031002 0.118987 0.007551
0.023593 0.125138 0.010419
-0.075106 0.150001 -0.025053
-0.059992 0.156196 0.005296
-0.008510 0.129483 0.023253
-0.027366 0.125790 0.011946
-0.051016 0.151649 0.012418
-0.067326 0.166275 -0.022931
0.054888 0.068826 0.024757
0.051216 0.072866 0.019693
-0.024103 0.125404 0.018519
0.016898 0.128677 0.011636
0.001081 0.131185 0.004656
-0.088444 0.101721 0.019877
-0.088601 0.101935 0.009851
-0.036167 0.176299 -0.008287
-0.028895 0.180451 -0.007598
-0.032354 0.178466 -0.007687
0.046526 0.070329 0.022236
0.045430 0.073079 0.021187
-0.073844 0.148838 0.040322
0.001756 0.125927 0.031722
0.034108 0.115194 0.018441
0.028015 0.121780 0.014236
0.019575 0.127355 0.015554
0.013704 0.130037 0.010018
0.009915 0.130587 0.004323
-0.071459 0.108503 -0.010784
-0.071509 0.034917 0.008923
-0.066851 0.035668 0.014812
-0.065600 0.036734 0.026800
-0.066410 0.036444 0.029080
-0.066707 0.038041 0.034584
-0.063741 0.038059 0.042086
-0.038782 0.036992 0.043158
-0.072231 0.037158 0.008344
-0.067753 0.037577 0.013735
-0.064679 0.037840 0.024743
-0.065908 0.038371 0.028427
-0.066731 0.037761 0.031014
-0.066421 0.036780 0.037772
-0.060305 0.037406 0.045618
-0.057719 0.038903 0.046860
-0.084812 0.077918 0.016641
-0.039260 0.039272 0.042177
-0.036240 0.038714 0.046167
-0.033272 0.039081 0.050452
-0.030574 0.040183 0.051911
-0.028864 0.038770 0.053717
-0.024708 0.036448 0.054177
-0.058384 0.096354 -0.020661
-0.072310 0.037011 0.003883
-0.063719 0.035889 0.018077
-0.061461 0.037216 0.020174
-0.059587 0.038435 0.020491
-0.064162 0.039106 0.026519
-0.065499 0.039876 0.029572
-0.065240 0.040280 0.032313
-0.064354 0.042442 0.037653
-0.062125 0.041515 0.042814
-0.036747 0.041614 0.045026
-0.030023 0.094493 -0.024266
-0.050958 0.096514 -0.022295
0.050730 0.070752 0.003976
-0.070569 0.040438 0.004303
-0.072540 0.038081 0.006040
-0.071485 0.039499 0.007899
-0.059564 0.039724 0.019423
-0.041791 0.172265 -0.002990
-0.035484 0.041106 0.046471
-0.033420 0.040967 0.050177
-0.024543 0.042209 0.054061
-0.080642 0.096658 0.033953
-0.085172 0.132000 0.048891
-0.071336 0.039140 0.003073
-0.065585 0.041133 0.013181
-0.061653 0.039395 0.017713
-0.076586 0.097526 0.037084
-0.055597 0.048251 0.038872
-0.033155 0.043697 0.048319
-0.027891 0.041586 0.053354
-0.074946 0.096621 0.039090
-0.069831 0.042509 0.006916
-0.060520 0.044454 0.042646
-0.073086 0.148509 -0.030420
-0.038150 0.042769 0.042055
-0.041207 0.087031 -0.021470
-0.067408 0.044656 0.005249
-0.067448 0.044369 0.007344
-0.065821 0.043187 0.010685
-0.063254 0.041823 0.014328
-0.018690 0.076358 0.055357
-0.060298 0.045968 0.040815
-0.079261 0.085593 0.035825
-0.034018 0.044157 0.046061
-0.028110 0.046625 0.049834
-0.019368 0.098602 0.044585
-0.014325 0.099907 0.044636
-0.087982 0.138183 0.040966
-0.075486 0.163991 -0.017701
-0.059168 0.043729 0.014650
-0.058348 0.047242 0.039901
-0.082014 0.131006 0.051816
-0.035979 0.047234 0.039877
-0.031279 0.047006 0.045252
-0.028062 0.048078 0.048118
-0.084428 0.094802 0.029867
-0.063891 0.045724 0.008434
-0.058727 0.047082 0.009044
-0.056152 0.046985 0.011882
-0.016549 0.098461 0.046030
-0.034782 0.045546 0.044538
-0.076061 0.160688 -0.012610
-0.049593 0.165030 0.003017
-0.073646 0.073574 0.033917
-0.084810 0.143421 0.040426
-0.070863 0.100742 0.039787
-0.078113 0.167206 -0.030008
-0.051929 0.046452 0.016353
-0.092336 0.126249 0.039208
-0.087634 0.142885 0.037265
-0.076414 0.158360 -0.010157
-0.090896 0.148097 0.024327
-0.081696 0.079302 0.029497
-0.087178 0.090958 0.025738
-0.022422 0.092452 0.051523
-0.058344 0.048298 0.006781
-0.051330 0.049812 0.014052
-0.019137 0.082635 0.057527
-0.052070 0.050781 0.031620
-0.049596 0.051048 0.035994
-0.088460 0.090162 0.022878
-0.032143 0.051656 0.037514
-0.033266 0.049324 0.040340
-0.030330 0.050056 0.042514
-0.026528 0.049924 0.046004
-0.057553 0.058875 0.021346
-0.026721 0.088815 0.048564
-0.022828 0.095366 0.046358
-0.082703 0.122404 0.049373
-0.076727 0.161327 -0.015444
-0.056134 0.049301 0.009698
-0.087897 0.128540 0.046030
-0.030949 0.051327 0.038909
-0.028633 0.051099 0.041500
-0.050040 0.162730 0.005669
-0.029459 0.085509 0.044508
-0.078237 0.082361 0.035602
-0.054454 0.052050 0.010361
-0.041023 0.167971 -0.010926
-0.050891 0.052174 0.032770
-0.028552 0.052364 0.037462
-0.026036 0.052289 0.039644
-0.084123 0.105961 0.025906
-0.027573 0.083203 0.048907
-0.046999 0.168139 0.000277
-0.049832 0.053566 0.015728
-0.076071 0.155607 -0.004604
-0.047577 0.053613 0.036904
-0.090046 0.118946 0.045535
-0.027298 0.054291 0.037094
-0.026413 0.092886 0.045444
-0.043365 0.091183 -0.022645
-0.050828 0.054440 0.018800
-0.049212 0.055846 0.034579
-0.024059 0.052356 0.041601
-0.021935 0.054661 0.044909
-0.019057 0.053108 0.047768
-0.053069 0.054978 0.011934
-0.051137 0.055632 0.015700
-0.052064 0.056157 0.018744
-0.052121 0.056597 0.021063
-0.092411 0.120229 0.042644
-0.090653 0.145391 0.026990
-0.013661 0.057372 0.051577
-0.072517 0.080518 0.039058
-0.054742 0.057675 0.020096
-0.053374 0.057496 0.021022
-0.052738 0.057931 0.022764
-0.053000 0.059518 0.025970
-0.049890 0.061235 0.033995
-0.019285 0.057907 0.048916
-0.081823 0.109012 0.028382
-0.086236 0.129727 0.048696
-0.074528 0.149474 -0.029214
-0.083868 0.089224 0.029671
-0.077773 0.173181 -0.040572
-0.086767 0.101807 0.024276
-0.082802 0.083225 0.030461
-0.056094 0.059701 0.023213
-0.054022 0.059404 0.024083
-0.052562 0.060929 0.029086
-0.050923 0.058655 0.031768
-0.045408 0.060751 0.038893
-0.070165 0.095574 0.042132
-0.024028 0.058332 0.041889
-0.022465 0.062886 0.044627
-0.017173 0.060249 0.051690
-0.082366 0.128141 0.052081
-0.057352 0.061623 0.026471
-0.054101 0.060796 0.026875
-0.076415 0.179041 -0.050519
-0.089198 0.115423 0.044544
-0.085037 0.148205 0.034373
-0.012831 0.101056 0.043844
-0.078113 0.170668 -0.036480
-0.080889 0.105588 0.030304
-0.051921 0.049309 0.035391
-0.090060 0.122437 0.045781
-0.077512 0.087949 0.038005
-0.048372 0.063904 0.036405
-0.078557 0.115774 -0.004865
-0.085947 0.124511 0.048612
-0.018903 0.094324 0.052484
-0.085570 0.098376 0.027864
-0.029812 0.079091 0.042613
-0.075928 0.114882 -0.005474
0.004609 0.109304 -0.020265
-0.022702 0.096534 0.045074
-0.019543 0.097659 0.045273
-0.081907 0.116486 -0.002827
-0.017122 0.096475 0.050889
-0.017820 0.099088 0.044160
-0.078458 0.117823 0.050897
-0.076673 0.104799 0.034846
-0.025158 0.087753 0.051751
-0.025804 0.072979 0.045030
-0.054098 0.160572 0.006136
-0.044133 0.152039 -0.006362
-0.067129 0.102558 -0.015650
-0.054216 0.089819 -0.022390
-0.074042 0.150123 -0.034125
-0.085348 0.139029 0.043996
-0.021319 0.094630 0.049903
-0.026193 0.064962 0.039928
-0.019144 0.063280 0.050224
-0.081739 0.138294 0.047733
-0.077609 0.176856 -0.046548
-0.024557 0.082418 0.054405
-0.078402 0.145886 0.042849
-0.049665 0.090371 -0.021718
-0.045285 0.066514 0.039782
-0.083202 0.117380 0.049022
-0.038418 0.160885 -0.012673
-0.086717 0.134449 0.045483
-0.023041 0.067309 0.046727
-0.074335 0.159320 -0.007980
-0.028517 0.036670 0.053545
-0.080384 0.116085 0.048237
-0.086112 0.120219 0.048813
-0.023731 0.073087 0.049081
-0.064808 0.134467 -0.008067
-0.020122 0.090215 0.054699
-0.087829 0.147013 0.031188
-0.058283 0.088179 -0.021099
-0.022871 0.075007 0.052191
-0.071888 0.115602 -0.007681
-0.067886 0.092278 -0.016665
-0.080808 0.118575 0.048884
-0.022693 0.085736 0.055308
-0.081172 0.091557 0.033344
-0.088490 0.096965 0.022983
-0.072730 0.091950 0.041417
-0.039859 0.104012 -0.020436
-0.039739 0.108289 -0.019707
-0.090072 0.129594 0.041871
-0.024731 0.078837 0.053003
-0.085785 0.149502 0.031524
-0.076719 0.163502 -0.019444
-0.019846 0.068444 0.052482
-0.020978 0.071969 0.052482
-0.027220 0.077720 0.046588
-0.070740 0.086020 0.041689
-0.091694 0.124232 0.043164
-0.028984 0.081714 0.045395
-0.023566 0.093119 0.049157
-0.044638 0.035839 -0.023340
-0.045364 0.034408 -0.022481
-0.092452 0.130847 0.025510
-0.061763 0.038716 0.023717
-0.071366 0.169069 -0.048901
-0.040527 0.173534 -0.006684
-0.077929 0.177397 -0.050007
-0.044910 0.038416 -0.022296
-0.045642 0.038324 -0.020650
-0.047421 0.037719 -0.014382
-0.086623 0.127633 -0.001529
-0.059202 0.040782 0.021193
-0.061418 0.040402 0.023181
-0.063955 0.040417 0.026211
-0.065234 0.040820 0.029347
-0.078042 0.166359 -0.036929
-0.067562 0.167998 -0.055845
-0.077607 0.175771 -0.049849
-0.076638 0.177179 -0.051727
-0.042205 0.038004 -0.026756
-0.046255 0.038034 -0.017811
-0.070102 0.040873 0.000451
-0.063470 0.042022 0.026858
-0.078424 0.162214 -0.025198
-0.087845 0.129952 0.001823
-0.092644 0.115151 0.014637
-0.042966 0.038701 -0.025269
-0.043296 0.042976 -0.019942
-0.043915 0.042382 -0.017514
-0.046729 0.041115 -0.012249
-0.065178 0.043969 -0.001234
-0.069091 0.043113 0.002199
-0.074552 0.153738 -0.020233
-0.057568 0.041255 0.019361
-0.064874 0.043054 0.033911
-0.048118 0.167695 -0.002027
-0.067432 0.044469 0.002467
-0.093044 0.131370 0.019436
-0.075845 0.150563 -0.008151
-0.054061 0.043663 0.018339
-0.060846 0.044896 0.028201
-0.092256 0.132357 0.017438
-0.074632 0.164520 -0.037566
-0.041580 0.041328 -0.023491
-0.064678 0.094344 -0.018505
-0.054601 0.043524 0.020542
-0.054046 0.046717 0.024318
-0.060415 0.043441 0.025667
-0.063114 0.045075 0.032293
-0.062504 0.045376 0.037524
-0.079137 0.166665 -0.035553
-0.077592 0.158523 -0.022550
-0.089703 0.114612 0.006096
-0.038101 0.045647 -0.023234
-0.041482 0.044076 -0.022254
-0.043755 0.044584 -0.014185
-0.056592 0.047261 -0.004113
-0.059402 0.045840 -0.003072
-0.061161 0.047068 0.001974
-0.065247 0.045997 0.005083
-0.061060 0.047277 0.006122
-0.051568 0.045958 0.018134
-0.057125 0.047500 0.030235
-0.057939 0.047831 0.032955
-0.060350 0.047121 0.036483
-0.052614 0.163152 -0.000802
-0.041207 0.046312 -0.016527
-0.040485 0.097853 -0.021913
0.017274 0.112999 -0.015692
-0.057742 0.048052 -0.001197
-0.058790 0.048218 0.002913
-0.076589 0.155249 -0.006754
-0.050199 0.048407 0.017229
-0.050482 0.048561 0.018890
-0.052475 0.045628 0.020605
-0.055053 0.047685 0.027965
-0.055358 0.048866 0.036306
-0.073687 0.173374 -0.049612
-0.039931 0.045948 -0.021108
-0.072062 0.149863 -0.040501
-0.092100 0.114323 0.018978
-0.091483 0.145898 0.017681
-0.053387 0.047837 0.025166
-0.053712 0.049099 0.029135
-0.053741 0.049089 0.033059
-0.052878 0.049084 0.034662
-0.073293 0.163291 -0.038595
-0.031023 0.048173 -0.023724
-0.034445 0.048270 -0.019168
-0.057251 0.050325 -0.000139
-0.057315 0.052436 0.002594
-0.052045 0.050284 0.023143
-0.052446 0.051047 0.026899
-0.079908 0.140611 -0.003799
-0.050622 0.165164 -0.000437
-0.078956 0.164960 -0.030904
-0.082440 0.108507 -0.000177
-0.025849 0.121047 -0.008567
-0.030530 0.049464 -0.020647
-0.032033 0.049694 -0.018630
-0.031102 0.050224 -0.016991
-0.034156 0.049711 -0.013614
0.034172 0.110870 -0.004906
-0.055296 0.049907 -0.004125
-0.072885 0.142624 -0.008339
-0.081716 0.137678 -0.001735
-0.031878 0.108792 -0.018814
-0.026520 0.049394 -0.025693
-0.028620 0.049678 -0.023217
-0.029689 0.050733 -0.020052
-0.072710 0.151274 -0.040120
-0.051853 0.055150 0.028445
-0.030215 0.052591 -0.017470
-0.031530 0.051377 -0.013194
-0.056849 0.056063 0.004917
-0.055890 0.053578 0.007735
-0.051340 0.053952 0.021447
-0.052168 0.055962 0.025572
-0.072352 0.155975 -0.035328
-0.077836 0.173869 -0.047489
-0.068413 0.177756 -0.058526
-0.029701 0.054034 -0.021139
-0.054647 0.055404 -0.004958
-0.056931 0.055509 0.000567
-0.055966 0.056302 0.008555
-0.053750 0.056038 0.011620
-0.091906 0.130603 0.009798
-0.025612 0.054384 -0.027772
-0.027703 0.052794 -0.024655
-0.030782 0.055712 -0.015672
-0.057474 0.057970 0.001694
-0.059143 0.058608 0.005993
-0.056738 0.057486 0.010031
-0.088814 0.137460 0.011003
-0.078768 0.168793 -0.040111
-0.074385 0.149835 -0.031170
-0.020547 0.180333 -0.022475
-0.031883 0.057134 -0.012978
-0.056722 0.060935 -0.003736
-0.057232 0.059821 -0.001830
-0.090381 0.135558 0.014850
-0.079376 0.168351 -0.037976
-0.091637 0.129225 0.031831
-0.071731 0.152538 -0.044223
-0.078499 0.172649 -0.045602
-0.045866 0.166747 -0.007045
-0.023642 0.180746 -0.019274
-0.026912 0.057137 -0.027431
-0.028886 0.057781 -0.023007
-0.030952 0.058255 -0.017803
-0.088769 0.136866 0.026470
0.006567 0.104926 -0.021143
-0.074052 0.170765 -0.046259
-0.078795 0.173534 -0.043716
-0.078971 0.172931 -0.044540
-0.024048 0.182993 -0.016991
-0.025131 0.056232 -0.029195
-0.032098 0.059922 -0.014952
-0.039186 0.035600 -0.029309
-0.004121 0.111658 -0.020722
-0.065463 0.062251 -0.001839
-0.042787 0.095697 -0.022461
-0.060181 0.093534 -0.019235
-0.056961 0.094160 -0.021551
-0.090102 0.139758 0.014629
-0.063061 0.166492 -0.060656
-0.077512 0.157631 -0.014076
-0.044307 0.170758 -0.004546
-0.018799 0.167511 -0.019506
-0.068220 0.158952 -0.054863
-0.026014 0.060300 -0.030686
-0.029636 0.062855 -0.024158
-0.033207 0.060952 -0.014594
-0.070583 0.090900 -0.016338
-0.040395 0.171737 -0.009624
-0.043695 0.170703 -0.006497
-0.090107 0.132721 0.037428
-0.027246 0.122213 -0.006626
-0.033239 0.062657 -0.014359
-0.019791 0.034699 -0.027622
-0.068886 0.064399 -0.001445
-0.061079 0.089346 -0.019187
-0.074604 0.151429 -0.029747
-0.038936 0.122745 -0.010585
-0.079311 0.170260 -0.041104
-0.057213 0.159337 0.003342
-0.028399 0.062119 -0.028240
-0.030215 0.060545 -0.021190
-0.032263 0.062818 -0.017763
0.033895 0.095495 -0.013888
-0.071079 0.065547 0.000177
-0.074133 0.067118 0.001535
-0.035945 0.088260 -0.024179
-0.052995 0.161326 -0.002095
-0.091230 0.129107 0.038253
-0.070516 0.173278 -0.053379
-0.089046 0.139584 0.037444
-0.084612 0.134179 -0.000485
-0.028224 0.067056 -0.030289
-0.029914 0.065023 -0.027611
-0.032471 0.065394 -0.018809
0.044144 0.069147 0.000788
-0.048411 0.101490 -0.021667
-0.060712 0.122659 -0.008765
-0.089291 0.132990 0.003967
-0.078950 0.171435 -0.040187
-0.070489 0.165199 -0.048258
-0.018127 0.182386 -0.024503
-0.030984 0.066024 -0.024724
-0.071013 0.069192 -0.005135
-0.072536 0.069530 -0.003081
-0.075149 0.069904 -0.000625
-0.078337 0.148817 -0.002410
-0.077452 0.150256 -0.005261
-0.078298 0.170677 -0.043261
-0.075095 0.170163 -0.044697
-0.027335 0.180381 -0.015249
-0.045684 0.116865 -0.015534
-0.025108 0.064724 -0.032874
-0.030367 0.069186 -0.028431
-0.031469 0.066096 -0.021814
-0.045120 0.125046 -0.008929
-0.015026 0.108381 -0.020633
-0.073093 0.071032 -0.006718
-0.075098 0.071329 -0.005073
-0.077119 0.070924 0.001857
-0.080952 0.071996 0.014894
0.010772 0.088545 -0.031196
-0.089789 0.134642 0.006651
-0.077558 0.161052 -0.018407
-0.077764 0.072335 -0.002634
-0.078173 0.072679 0.000533
-0.073708 0.147968 -0.020016
-0.046617 0.168521 -0.004747
-0.075270 0.159659 -0.027984
-0.069204 0.169610 -0.053259
-0.086397 0.151091 0.008890
-0.035338 0.072063 -0.018175
0.017043 0.125890 -0.001711
-0.078601 0.073506 -0.003835
-0.081076 0.076461 -0.002080
-0.081754 0.076449 0.000491
-0.081833 0.073623 0.007299
-0.082581 0.076039 0.011598
-0.082048 0.075184 0.015936
-0.080954 0.074669 0.019559
-0.089309 0.146421 0.010228
-0.084927 0.145451 0.006236
-0.070798 0.154353 -0.047254
-0.090795 0.134932 0.019729
-0.070938 0.158461 -0.043788
-0.073735 0.154825 -0.025940
-0.075130 0.162599 -0.033675
-0.031971 0.069714 -0.024030
-0.083832 0.076485 0.007318
-0.068987 0.132519 -0.008546
-0.083705 0.150562 0.004063
-0.090764 0.150361 0.015662
0.026497 0.089950 -0.022537
-0.044955 0.089496 -0.022126
-0.053796 0.162226 0.002962
-0.022357 0.037073 0.054042
-0.076974 0.152719 -0.007643
-0.094247 0.126916 0.022353
-0.000581 0.111173 -0.019963
-0.027534 0.072012 -0.034928
-0.029666 0.070767 -0.031166
-0.031847 0.074858 -0.029027
-0.033628 0.076606 -0.027229
-0.033551 0.074532 -0.025465
-0.033591 0.072763 -0.022408
0.022828 0.102010 -0.019696
-0.084156 0.078292 0.003836
-0.085580 0.078984 0.013090
0.007925 0.107568 -0.020119
-0.072547 0.144028 -0.013164
-0.074702 0.166941 -0.040829
-0.078199 0.160977 -0.025952
-0.032241 0.077429 -0.031084
-0.034430 0.077063 -0.023729
-0.075676 0.080757 -0.011320
-0.080700 0.080094 -0.005163
-0.082471 0.080724 -0.001805
-0.085907 0.079760 0.010401
-0.086713 0.081078 0.013904
-0.084075 0.080938 0.022741
-0.089739 0.134185 0.029906
-0.077322 0.145787 -0.004107
-0.080223 0.150855 0.000911
-0.075871 0.151346 -0.019770
-0.073815 0.160316 -0.032854
-0.073259 0.167130 -0.042984
-0.030622 0.076424 -0.033420
-0.034749 0.077526 -0.021227
-0.062024 0.175442 -0.061688
-0.082590 0.082555 -0.004328
-0.084183 0.081593 0.002781
-0.086059 0.080451 0.008024
-0.089856 0.149513 0.012032
-0.077863 0.152706 -0.000598
-0.077117 0.154144 -0.011000
0.007185 0.114203 -0.018813
-0.034694 0.079837 -0.023490
-0.079244 0.083313 -0.009504
-0.080661 0.083786 -0.007073
-0.082346 0.083958 -0.005345
-0.086186 0.083300 0.006289
-0.086598 0.084360 0.009102
-0.086881 0.084323 0.012434
-0.086191 0.080053 0.016527
-0.085719 0.083365 0.021156
-0.085077 0.085830 0.026219
-0.084072 0.081407 0.026401
-0.091464 0.141130 0.020449
-0.088638 0.144679 0.031785
0.030420 0.116644 -0.002441
-0.074911 0.154080 -0.018619
-0.049022 0.165876 -0.003943
-0.073406 0.157654 -0.030196
-0.031469 0.080150 -0.031974
-0.032746 0.077031 -0.028470
-0.076789 0.083701 -0.012182
-0.086263 0.084421 0.002477
-0.086675 0.084358 0.017417
-0.086371 0.085420 0.023141
-0.055971 0.160007 0.001379
-0.033411 0.106461 -0.020272
-0.089239 0.151011 0.022339
-0.069526 0.156375 -0.051224
-0.074928 0.152900 -0.016356
0.030658 0.087547 -0.020061
-0.088511 0.086438 0.012023
-0.089032 0.088460 0.018814
-0.091554 0.144472 0.020760
-0.089485 0.140265 0.034154
-0.075092 0.144588 -0.006842
-0.086295 0.148467 0.007398
-0.078764 0.165245 -0.034091
-0.028533 0.084555 -0.035289
-0.032628 0.082773 -0.029321
-0.033737 0.083371 -0.025269
0.026768 0.119046 -0.003640
-0.075180 0.084510 -0.014412
-0.077748 0.087964 -0.011895
-0.084719 0.084231 -0.002304
-0.086953 0.086750 0.001748
-0.088055 0.086163 0.005066
-0.088783 0.087868 0.008869
-0.088174 0.087072 0.014949
-0.091832 0.142109 0.016199
-0.090042 0.144329 0.013617
-0.074778 0.155835 -0.021749
-0.091691 0.148472 0.019542
-0.085917 0.139357 0.002570
-0.030951 0.084314 -0.030930
-0.034022 0.177275 -0.010703
-0.082538 0.088286 -0.006113
-0.084852 0.088504 -0.002950
-0.087425 0.142841 0.010002
-0.077335 0.155006 -0.015466
-0.078310 0.162843 -0.029888
-0.064999 0.167558 -0.060107
-0.071823 0.156129 -0.039425
-0.075357 0.151425 -0.011974
-0.032593 0.086116 -0.025791
-0.087563 0.110433 0.013660
-0.085726 0.089988 -0.000094
-0.087644 0.089282 0.003201
-0.088659 0.089190 0.006340
-0.089809 0.139650 0.024100
-0.075799 0.150007 -0.019136
-0.078845 0.168627 -0.034819
-0.083211 0.114401 -0.001201
-0.069620 0.161161 -0.049858
-0.075599 0.109214 -0.007943
-0.029311 0.088241 -0.031875
-0.031401 0.087721 -0.026711
-0.074605 0.087994 -0.015013
-0.080511 0.088441 -0.008048
-0.083478 0.090520 -0.005960
-0.086047 0.092495 0.002152
-0.087131 0.092611 0.004000
-0.089826 0.090897 0.014884
-0.082396 0.147884 0.002388
-0.091043 0.142444 0.026701
-0.085581 0.143002 0.007128
-0.089693 0.141462 0.030260
-0.083246 0.145359 0.002698
-0.076098 0.148454 -0.011147
-0.077773 0.151085 -0.003170
-0.077104 0.156065 -0.019047
-0.076195 0.150388 -0.015300
-0.074231 0.157293 -0.026173
-0.085421 0.117015 -0.000352
-0.083683 0.138687 0.000467
-0.082337 0.094105 -0.006833
-0.031346 0.114641 -0.016348
-0.012360 0.099069 -0.024851
0.056585 0.068816 0.003297
0.000500 0.116739 -0.017443
0.015166 0.122343 -0.009159
-0.019076 0.186919 -0.017469
0.037263 0.086919 -0.015853
-0.015598 0.102939 -0.023307
-0.019300 0.186900 -0.019873
0.007177 0.118601 -0.015502
0.010087 0.112242 -0.019034
-0.006782 0.114788 -0.017258
0.048400 0.071674 0.005898
-0.029901 0.177344 -0.015271
-0.017478 0.185881 -0.023502
-0.043156 0.113006 -0.016451
0.003053 0.099006 -0.023600
0.004836 0.123440 -0.010374
0.056830 0.065896 0.001723
-0.017504 0.035785 -0.027048
-0.005180 0.101162 -0.023279
0.016004 0.118619 -0.012737
-0.024653 0.095678 -0.025184
-0.015860 0.185153 -0.025575
0.052466 0.068093 0.001059
-0.040255 0.116844 -0.014543
0.013836 0.105928 -0.019088
0.018950 0.089725 -0.026110
-0.056819 0.158486 0.001290
-0.047399 0.113384 -0.016355
-0.061613 0.171053 -0.061961
-0.050035 0.110056 -0.018675
-0.061950 0.041742 -0.006816
-0.013553 0.184310 -0.027486
-0.034145 0.113296 -0.017219
0.001634 0.104234 -0.021988
-0.008249 0.112453 -0.020200
0.035870 0.106574 -0.006207
0.034752 0.105093 -0.010151
-0.061834 0.154573 0.003151
-0.059715 0.155773 0.002840
0.012242 0.122065 -0.011287
-0.048108 0.163935 -0.006105
-0.010990 0.182105 -0.028083
-0.027121 0.034412 -0.029275
-0.023013 0.094826 -0.029737
-0.053858 0.126982 -0.005377
-0.011305 0.180626 -0.029650
-0.015774 0.098607 -0.024419
-0.065273 0.154579 0.002970
-0.059714 0.153608 0.000761
0.013457 0.111652 -0.018104
-0.024216 0.108803 -0.021124
-0.014057 0.182618 -0.028112
-0.017534 0.113094 -0.018941
-0.057977 0.151064 -0.000978
-0.052416 0.125472 -0.006533
0.020660 0.111015 -0.015186
-0.061640 0.152443 0.000264
0.028086 0.099623 -0.017363
0.017710 0.102493 -0.021625
0.047196 0.071645 0.004973
-0.034604 0.041704 -0.029570
-0.062830 0.151755 -0.000978
-0.001501 0.104598 -0.022477
0.047076 0.073739 0.009855
0.011681 0.098145 -0.023108
-0.015325 0.124140 -0.005612
0.008067 0.099007 -0.022419
0.018264 0.106227 -0.017368
-0.038315 0.114016 -0.016721
0.011761 0.095584 -0.026233
-0.001421 0.099943 -0.023894
-0.052425 0.035570 -0.012338
-0.063911 0.152414 -0.002125
-0.059365 0.147155 -0.002050
0.021601 0.108261 -0.015557
-0.007243 0.102624 -0.023504
-0.065387 0.116075 -0.010014
-0.006281 0.124791 -0.009623
-0.015471 0.094400 -0.033723
-0.023574 0.115032 -0.015614
0.023783 0.114738 -0.011581
-0.012370 0.102521 -0.024116
-0.060254 0.034754 -0.009814
-0.034537 0.123308 -0.007021
0.034452 0.088435 -0.017691
0.013422 0.094659 -0.025929
0.005859 0.097222 -0.026617
-0.004149 0.116868 -0.015772
0.010939 0.118875 -0.014948
0.011702 0.104819 -0.019932
0.011074 0.114845 -0.016685
0.028102 0.095556 -0.019461
-0.033632 0.119298 -0.011016
0.015214 0.095479 -0.023999
0.034346 0.100351 -0.012878
-0.035711 0.043281 -0.028272
-0.032725 0.045501 -0.027285
0.007047 0.101361 -0.021238
-0.039694 0.041396 -0.026416
-0.054664 0.118056 -0.013437
-0.020458 0.123457 -0.006007
-0.014694 0.122105 -0.007984
-0.022420 0.096656 -0.024831
0.031888 0.111955 -0.007269
-0.055677 0.143914 -0.001541
-0.036832 0.116300 -0.014883
0.022632 0.087389 -0.024571
0.005644 0.093305 -0.031923
-0.007890 0.094663 -0.033709
-0.013340 0.111809 -0.018683
-0.016444 0.096000 -0.031152
-0.033996 0.036833 -0.030639
0.024407 0.098566 -0.020478
-0.008395 0.119452 -0.014148
-0.067204 0.179666 -0.059606
0.008931 0.092584 -0.030462
-0.002527 0.113326 -0.018773
-0.026900 0.111429 -0.017800
-0.059994 0.143548 -0.003066
-0.003345 0.095953 -0.032067
-0.066299 0.041858 -0.004222
-0.057452 0.044461 -0.006299
0.046213 0.072693 0.003994
-0.050894 0.118253 -0.014213
-0.012146 0.086919 -0.038510
0.003875 0.116457 -0.018146
-0.037425 0.039991 -0.028940
0.001325 0.125244 -0.007978
-0.016246 0.118239 -0.014113
-0.060711 0.141396 -0.005176
0.055036 0.070703 0.004717
0.000869 0.095142 -0.031754
0.013128 0.091777 -0.029139
-0.021184 0.111988 -0.018961
0.028031 0.078879 -0.022489
0.046127 0.065775 -0.000452
0.054263 0.064018 -0.000392
-0.002591 0.122305 -0.010884
-0.059086 0.120745 -0.009386
0.019837 0.099851 -0.022299
-0.041692 0.047355 -0.012638
-0.036711 0.045300 -0.025593
0.048719 0.061006 -0.004211
-0.070958 0.115192 0.051629
-0.042557 0.120508 -0.013089
0.022855 0.118093 -0.009073
0.006664 0.089456 -0.033071
-0.012627 0.093438 -0.035114
-0.010406 0.125172 -0.007462
-0.001097 0.091441 -0.034648
0.035411 0.091339 -0.015700
-0.006727 0.122199 -0.011507
-0.006199 0.097222 -0.030107
0.016198 0.089739 -0.027899
-0.031950 0.037684 -0.030522
-0.028197 0.117124 -0.013851
-0.053388 0.138085 -0.001118
-0.046574 0.129825 0.002107
-0.038144 0.047580 -0.016769
0.042227 0.059947 -0.003968
-0.060228 0.114761 -0.013827
-0.013602 0.117426 -0.015305
-0.049819 0.035997 -0.012322
0.005412 0.112021 -0.020151
-0.023302 0.092727 -0.033725
-0.020853 0.098399 -0.024363
0.014900 0.104765 -0.019594
-0.043643 0.109872 -0.018460
0.026048 0.113874 -0.009669
-0.035907 0.046492 -0.024161
-0.010487 0.036209 -0.025496
-0.005656 0.109408 -0.022511
-0.018311 0.115482 -0.016770
-0.011516 0.114067 -0.017460
-0.010895 0.121466 -0.011238
0.013726 0.102292 -0.022003
-0.010863 0.096680 -0.031312
-0.056719 0.138886 -0.004573
-0.055565 0.135347 -0.003889
0.022252 0.091618 -0.023420
-0.004936 0.091923 -0.035368
-0.022751 0.090661 -0.035805
-0.017877 0.097641 -0.025425
-0.042736 0.035781 -0.027312
-0.006289 0.099528 -0.025313
-0.026822 0.110411 -0.019002
0.000206 0.097945 -0.027676
0.030287 0.104640 -0.014143
-0.049260 0.131741 -0.000505
0.028315 0.084075 -0.021615
0.025205 0.082860 -0.024511
0.045433 0.068823 0.002262
-0.018314 0.101651 -0.023808
0.041602 0.062061 -0.003013
0.009933 0.100621 -0.022200
-0.012441 0.128796 0.003256
0.001062 0.130290 0.000685
0.043752 0.066338 -0.000066
0.018625 0.122310 -0.006666
-0.037207 0.034857 -0.030341
0.025084 0.102981 -0.017832
-0.012431 0.091171 -0.036545
-0.035588 0.117672 -0.012794
-0.014644 0.099835 -0.023646
0.032868 0.108583 -0.008800
-0.067854 0.181008 -0.058146
-0.034940 0.035341 -0.031212
-0.052770 0.133352 -0.003740
-0.039384 0.127932 0.000752
0.006349 0.130151 0.000625
0.013677 0.128727 0.001021
-0.019286 0.107411 -0.022294
0.013917 0.115580 -0.015754
0.019086 0.116522 -0.013062
0.022872 0.095622 -0.021672
-0.057736 0.035926 -0.010430
-0.035519 0.120855 -0.009862
-0.020475 0.094586 -0.032192
-0.010058 0.087513 -0.037245
-0.050497 0.128299 -0.003538
-0.047940 0.129013 -0.001003
0.029282 0.092594 -0.019649
-0.001322 0.120198 -0.012967
0.017300 0.109410 -0.016902
0.031840 0.092254 -0.018363
-0.020545 0.126593 0.003226
-0.011843 0.126953 -0.003246
-0.000505 0.129308 -0.001303
0.001943 0.107835 -0.020340
0.029830 0.111736 -0.009536
-0.019642 0.118300 -0.012567
-0.057810 0.119725 -0.010644
-0.017314 0.091297 -0.036478
-0.049672 0.122078 -0.011518
-0.031145 0.035009 -0.030544
-0.041759 0.033975 -0.028000
0.011295 0.036070 -0.022334
0.025859 0.108334 -0.014173
-0.032000 0.121669 -0.007376
-0.053557 0.131363 -0.004747
-0.011162 0.100226 -0.024213
-0.002586 0.126898 -0.006231
0.005728 0.126943 -0.006249
0.008960 0.127218 -0.004821
0.014951 0.124838 -0.005117
0.005177 0.095397 -0.030098
0.025112 0.111555 -0.012136
-0.063393 0.178218 -0.060712
0.043786 0.064047 -0.001442
0.028596 0.107141 -0.013321
0.000698 0.100868 -0.022850
-0.051898 0.128602 -0.004112
-0.022347 0.124763 -0.001694
0.023106 0.120580 -0.005229
0.051161 0.064529 -0.001777
0.002514 0.120151 -0.013832
0.040043 0.101695 -0.003399
-0.045858 0.127068 -0.005676
-0.043119 0.126616 -0.005861
-0.036613 0.126494 -0.002252
-0.029140 0.124818 0.002069
-0.026540 0.124438 0.000062
-0.016302 0.125784 -0.002257
-0.006825 0.127163 -0.005730
0.009169 0.124201 -0.008839
0.007565 0.034217 -0.020734
0.004646 0.034201 -0.021235
0.000025 0.034818 -0.023613
-0.003181 0.034830 -0.023902
-0.007491 0.034980 -0.024676
-0.015579 0.034818 -0.025969
-0.044507 0.098495 -0.021538
-0.025958 0.035004 -0.028902
0.005415 0.036112 -0.023601
0.000727 0.036082 -0.024422
-0.003525 0.036276 -0.024820
-0.012543 0.034857 -0.025519
-0.015905 0.036926 -0.026807
-0.026017 0.036739 -0.029213
-0.025188 0.170898 -0.019386
-0.055132 0.096864 -0.021532
-0.067553 0.033765 -0.005865
0.014452 0.038841 -0.021897
-0.000865 0.038479 -0.025132
-0.077441 0.123062 -0.006967
-0.066541 0.098801 -0.016223
-0.074803 0.097534 -0.013473
-0.034969 0.160281 -0.013292
-0.065022 0.036559 -0.007654
-0.066627 0.033850 -0.006982
-0.068325 0.036057 -0.005947
-0.069787 0.034350 -0.003987
0.023229 0.036823 -0.001913
0.010572 0.037542 -0.022997
0.004208 0.038282 -0.024308
-0.006619 0.039887 -0.025918
-0.023126 0.036404 -0.028692
-0.075282 0.136260 -0.006468
-0.066832 0.117806 -0.008858
-0.061774 0.036234 -0.008792
-0.069532 0.036669 -0.004054
-0.070765 0.036347 -0.001027
0.033211 0.038291 0.000028
0.024238 0.038796 -0.003826
0.007831 0.041065 -0.023550
-0.012573 0.040132 -0.026578
-0.029947 0.041872 -0.029794
-0.075150 0.069487 0.025502
-0.060507 0.128578 -0.007664
-0.047771 0.036586 -0.012597
-0.068799 0.039003 -0.001967
0.011612 0.040489 -0.023226
0.002381 0.041967 -0.024328
-0.003904 0.041984 -0.025476
-0.009802 0.043289 -0.026045
-0.020553 0.041618 -0.028786
-0.057434 0.106578 -0.018109
0.014608 0.100465 -0.022645
-0.067184 0.039604 -0.005619
-0.071324 0.038207 0.000255
0.032638 0.040168 -0.002680
0.025105 0.040173 -0.004785
-0.064758 0.102868 -0.017244
0.014185 0.043346 -0.024209
0.003337 0.043267 -0.024707
-0.001248 0.043414 -0.025068
-0.004154 0.043408 -0.025872
-0.047686 0.040897 -0.011704
-0.057112 0.041212 -0.008774
-0.067390 0.041337 -0.001908
-0.028149 0.175862 -0.017476
0.028013 0.041027 -0.004416
-0.032455 0.036051 0.050381
0.017538 0.045233 -0.023272
0.011063 0.043873 -0.024948
-0.000556 0.044822 -0.026348
-0.007801 0.045920 -0.029518
-0.013235 0.046679 -0.029573
-0.013890 0.043540 -0.026733
-0.017450 0.044177 -0.027622
-0.025654 0.044360 -0.028439
-0.026218 0.047460 -0.026237
-0.070632 0.101615 -0.014124
-0.049938 0.043179 -0.010434
-0.053387 0.039695 -0.010982
-0.025707 0.099972 -0.023953
0.043766 0.043574 0.000485
0.041397 0.045145 -0.003677
0.035885 0.046181 -0.006068
0.036939 0.041908 -0.003106
0.031029 0.045183 -0.005974
0.027826 0.044919 -0.006560
-0.061336 0.097189 -0.018223
0.021035 0.046235 -0.020275
0.008494 0.046023 -0.025586
0.005143 0.045231 -0.026000
-0.001678 0.046542 -0.028842
-0.005239 0.045618 -0.029008
-0.016766 0.045444 -0.028158
-0.020829 0.046555 -0.027898
-0.021914 0.045860 -0.027844
-0.030914 0.044399 -0.028649
-0.064637 0.174099 -0.061147
-0.054782 0.036109 0.046769
-0.012610 0.171024 -0.025378
-0.045125 0.044455 -0.011163
-0.055060 0.045774 -0.006571
-0.075985 0.067571 0.012032
0.044567 0.046437 -0.003425
0.025119 0.048909 -0.020103
0.020702 0.047469 -0.021176
0.018006 0.047848 -0.023066
0.013867 0.046905 -0.025085
0.010414 0.048902 -0.027810
0.007035 0.048312 -0.027636
0.003474 0.047234 -0.028716
-0.001077 0.048601 -0.030330
-0.010127 0.046114 -0.029271
-0.027961 0.048793 -0.024251
-0.049988 0.046343 -0.009065
-0.062639 0.100997 -0.018313
0.017298 0.049401 -0.024344
0.014373 0.049445 -0.026807
0.001371 0.049839 -0.030495
-0.005849 0.049505 -0.030784
-0.042853 0.048126 -0.011205
-0.053258 0.048285 -0.006626
-0.011770 0.174659 -0.028246
0.042753 0.049267 -0.006039
0.032689 0.048770 -0.006426
0.031324 0.049485 -0.007649
0.022195 0.050797 -0.023501
0.016130 0.051506 -0.026513
0.014119 0.052477 -0.027674
0.005377 0.050332 -0.028993
-0.012153 0.050566 -0.031592
-0.019870 0.048869 -0.029412
-0.023270 0.048097 -0.027399
-0.035756 0.108440 -0.020028
-0.036448 0.048800 -0.013176
-0.037152 0.050242 -0.011039
-0.041224 0.050913 -0.011090
-0.047062 0.047916 -0.009653
-0.021296 0.172425 -0.021232
0.046571 0.049050 -0.004378
0.039166 0.049203 -0.006437
-0.071226 0.140330 -0.007510
0.023712 0.052155 -0.022877
0.020398 0.051842 -0.025591
-0.003445 0.052019 -0.031479
-0.010278 0.053157 -0.033616
-0.066697 0.157413 -0.054531
-0.032623 0.050667 -0.011522
0.044973 0.052935 -0.006305
0.033943 0.051727 -0.006922
0.026010 0.055576 -0.021136
0.019875 0.054610 -0.027483
0.017881 0.054336 -0.027984
0.008603 0.053808 -0.030315
0.007685 0.055213 -0.030756
0.003696 0.052695 -0.029847
0.000289 0.053483 -0.030479
-0.006435 0.052532 -0.032466
-0.033829 0.050834 -0.010459
-0.038074 0.052503 -0.010649
-0.044540 0.054789 -0.011054
-0.045669 0.051770 -0.010109
-0.071026 0.128285 -0.009150
0.042363 0.053708 -0.006840
0.036877 0.052428 -0.006652
-0.068208 0.096072 -0.016333
0.022339 0.054332 -0.025881
0.013256 0.055652 -0.029344
0.004761 0.056653 -0.030818
0.002328 0.056129 -0.031781
-0.013253 0.055426 -0.033893
-0.015869 0.051195 -0.031827
-0.032609 0.053031 -0.010453
-0.076650 0.101863 -0.010331
0.049399 0.055105 -0.004976
0.039426 0.055717 -0.005907
0.016919 0.056761 -0.028531
-0.011778 0.057228 -0.034230
-0.019235 0.054262 -0.032056
-0.032705 0.056191 -0.011341
-0.042325 0.056143 -0.011526
-0.050019 0.051623 -0.008359
-0.070685 0.096261 -0.015841
0.015999 0.060274 -0.028245
-0.001019 0.057149 -0.032368
-0.003987 0.057284 -0.033071
-0.006870 0.057106 -0.033321
-0.016071 0.058504 -0.035398
-0.047147 0.157146 -0.007622
-0.038758 0.158509 -0.011557
-0.034440 0.055098 -0.010325
-0.037104 0.056656 -0.011034
-0.053164 0.052736 -0.006247
0.053171 0.059932 -0.003161
0.048195 0.057312 -0.005488
0.043525 0.056651 -0.005830
0.039591 0.058265 -0.004797
-0.072539 0.132872 -0.007962
-0.080908 0.121166 -0.004885
0.023188 0.058513 -0.025769
0.011135 0.060711 -0.029597
0.005891 0.060230 -0.030764
0.002066 0.061006 -0.033266
-0.021543 0.059261 -0.033476
-0.035917 0.058934 -0.011343
-0.049024 0.055944 -0.010226
-0.076039 0.132909 -0.007021
-0.010581 0.108726 -0.021864
-0.000913 0.063633 -0.034422
-0.005442 0.060284 -0.034860
-0.009726 0.063159 -0.035872
-0.013415 0.060548 -0.036208
-0.030472 0.169675 -0.016982
-0.032593 0.059557 -0.012735
-0.033718 0.057526 -0.011116
-0.046260 0.058729 -0.011929
-0.035062 0.101286 -0.022162
-0.033731 0.060743 -0.012740
-0.042752 0.061841 -0.013001
-0.051811 0.105666 -0.019332
-0.066047 0.130077 -0.008929
-0.077389 0.118708 -0.006686
-0.051698 0.101606 -0.021407
0.021847 0.062068 -0.025983
0.014456 0.063693 -0.029873
0.001313 0.064698 -0.034422
-0.003756 0.062566 -0.035187
-0.014514 0.063426 -0.037125
-0.020126 0.064378 -0.036143
-0.022567 0.064608 -0.035032
-0.038593 0.059427 -0.011486
-0.048469 0.063585 -0.012573
-0.048974 0.060574 -0.011772
-0.055660 0.061427 -0.005967
-0.059409 0.060759 -0.001856
-0.078915 0.129540 -0.005727
-0.056868 0.102024 -0.019079
-0.058760 0.134251 -0.006368
-0.081743 0.132817 -0.003382
-0.059422 0.099348 -0.018911
-0.076751 0.127396 -0.007799
0.010593 0.067871 -0.030774
0.010012 0.063987 -0.031483
0.006019 0.064964 -0.032699
-0.013904 0.066194 -0.037305
-0.019724 0.066252 -0.037246
-0.066329 0.173073 -0.059211
-0.034955 0.063447 -0.013789
-0.040305 0.063771 -0.013576
-0.046242 0.064808 -0.013980
-0.053462 0.061414 -0.008936
-0.054257 0.064513 -0.009116
-0.054969 0.063097 -0.007224
-0.056812 0.062742 -0.006158
-0.060708 0.063052 -0.005305
-0.062960 0.061700 -0.002636
-0.070279 0.072512 0.035796
0.024298 0.064838 -0.023731
0.018834 0.064343 -0.028232
0.014704 0.066598 -0.030147
-0.001517 0.068630 -0.034279
-0.005264 0.066282 -0.035015
-0.016567 0.066191 -0.037914
-0.050763 0.064817 -0.011342
-0.024457 0.165002 -0.016721
-0.040687 0.155428 -0.009255
-0.015378 0.178544 -0.026870
-0.043044 0.159205 -0.010046
-0.033776 0.165793 -0.015408
-0.062616 0.111020 -0.014809
-0.046853 0.107683 -0.019026
-0.056398 0.109062 -0.017990
-0.031206 0.098448 -0.022956
0.021982 0.066686 -0.027174
0.020033 0.069324 -0.028655
0.016907 0.069601 -0.029746
0.013611 0.069220 -0.031307
0.006080 0.068221 -0.032599
0.002251 0.068636 -0.033330
-0.005347 0.068986 -0.035971
-0.008836 0.066630 -0.035639
-0.027341 0.069104 -0.033420
-0.034763 0.065969 -0.015079
-0.035824 0.067944 -0.015946
-0.037995 0.068397 -0.015585
-0.045647 0.066818 -0.015243
-0.052932 0.066284 -0.011164
-0.055670 0.065049 -0.008800
-0.058303 0.066315 -0.009618
-0.062249 0.066011 -0.008278
-0.065710 0.063072 -0.003224
-0.054979 0.141663 -0.001920
-0.011417 0.177293 -0.029455
-0.061829 0.106919 -0.016770
-0.066153 0.113511 -0.011412
0.023886 0.069137 -0.025662
0.005423 0.070976 -0.034032
-0.068359 0.138973 -0.007907
-0.033450 0.067511 -0.017788
-0.041981 0.066795 -0.015458
-0.049475 0.069320 -0.014364
-0.051404 0.067434 -0.012705
0.000849 0.113069 -0.019965
-0.036702 0.164270 -0.014079
-0.062941 0.074235 0.040418
-0.071117 0.123820 -0.008641
-0.074421 0.142063 -0.006733
-0.079494 0.070216 0.015478
0.025737 0.068606 -0.023787
0.008226 0.071238 -0.033105
-0.008681 0.070345 -0.036545
-0.011717 0.070905 -0.038038
-0.020453 0.074056 -0.039094
-0.056226 0.111156 -0.017334
-0.055771 0.069084 -0.014111
-0.064562 0.069337 -0.011337
-0.065990 0.067634 -0.007633
-0.069283 0.067590 -0.004624
-0.083463 0.127864 -0.004458
-0.079861 0.071525 0.018236
-0.020287 0.035916 0.053047
-0.045601 0.155481 -0.007780
0.014588 0.071691 -0.030830
-0.008841 0.072717 -0.037551
-0.021962 0.070863 -0.038184
-0.038468 0.071992 -0.017194
-0.057935 0.072222 -0.016632
-0.060525 0.069548 -0.014289
-0.068547 0.070580 -0.009788
-0.069476 0.069898 -0.007103
-0.065003 0.106783 -0.014640
-0.023190 0.177535 -0.020730
0.010445 0.071193 -0.032223
0.007984 0.076212 -0.034046
-0.006766 0.075282 -0.037240
-0.011586 0.075628 -0.038284
-0.023539 0.075036 -0.038384
-0.027222 0.074761 -0.035957
-0.064686 0.160699 -0.057491
-0.042615 0.071074 -0.017754
-0.044099 0.070975 -0.017402
-0.047121 0.072919 -0.016400
-0.049459 0.072412 -0.015615
-0.053874 0.071088 -0.015629
-0.067756 0.073569 -0.013868
-0.073116 0.073707 -0.009224
-0.074748 0.119490 -0.007786
-0.079429 0.126306 -0.005982
-0.022821 0.161672 -0.014563
0.023901 0.074284 -0.025933
0.021017 0.072346 -0.027466
0.011925 0.075728 -0.030877
0.003631 0.076134 -0.035051
0.001780 0.072819 -0.035129
-0.003173 0.073328 -0.035860
-0.052958 0.073748 -0.016959
-0.063179 0.072678 -0.015659
-0.075167 0.072919 -0.007325
-0.004308 0.103084 -0.023343
-0.084933 0.126044 -0.003346
-0.027326 0.167200 -0.017495
-0.052309 0.144300 -0.000316
-0.069732 0.153846 -0.049600
-0.026181 0.172840 -0.019158
0.031654 0.076599 -0.020136
0.020435 0.076719 -0.027003
0.015451 0.075340 -0.029568
0.009400 0.075441 -0.033137
-0.015491 0.073625 -0.038979
-0.035541 0.074133 -0.019115
-0.060704 0.075038 -0.017604
-0.063584 0.075769 -0.017528
-0.070336 0.072859 -0.011156
-0.064893 0.126876 -0.008855
-0.042003 0.165123 -0.010912
-0.033792 0.173030 -0.014496
-0.055698 0.149635 -0.002004
-0.049188 0.152777 -0.005078
0.027111 0.073470 -0.023931
0.012526 0.079356 -0.031407
-0.014137 0.077728 -0.038412
-0.028752 0.079665 -0.035405
-0.042919 0.076911 -0.018976
-0.045701 0.075942 -0.017910
-0.050225 0.075535 -0.017988
-0.055148 0.076417 -0.019214
-0.058127 0.075557 -0.018617
-0.066475 0.076379 -0.016745
-0.068647 0.075514 -0.015112
-0.072322 0.076593 -0.012963
-0.073917 0.076324 -0.010626
-0.023051 0.103372 -0.023608
-0.047584 0.160891 -0.007275
-0.071589 0.112920 -0.008784
0.008688 0.080031 -0.033088
0.004696 0.080168 -0.034069
-0.008571 0.077469 -0.037780
-0.014679 0.080905 -0.039415
-0.019478 0.081034 -0.039088
-0.021772 0.081451 -0.038950
-0.024609 0.077338 -0.037717
-0.011129 0.106532 -0.022617
-0.068307 0.156074 -0.052632
-0.035684 0.078215 -0.019634
-0.038642 0.075987 -0.018177
-0.049242 0.078081 -0.018937
-0.056981 0.078210 -0.019645
-0.063511 0.081825 -0.019158
-0.078591 0.076196 -0.006168
-0.065527 0.177112 -0.060717
-0.027467 0.103930 -0.023276
-0.030883 0.103985 -0.022375
-0.051105 0.155573 -0.004852
-0.050661 0.063424 0.034077
-0.069074 0.120796 -0.008945
0.008041 0.084369 -0.032593
-0.000546 0.079164 -0.035848
-0.003905 0.080668 -0.037127
-0.005949 0.078041 -0.037871
-0.008763 0.082712 -0.037930
-0.037298 0.104215 -0.020420
-0.047404 0.079035 -0.019453
-0.053388 0.078323 -0.019726
-0.041120 0.101353 -0.021354
0.032241 0.080225 -0.019394
0.022406 0.079324 -0.026112
0.018435 0.080178 -0.028172
0.013965 0.082654 -0.030159
0.011516 0.083623 -0.030882
0.002711 0.083259 -0.034672
-0.000619 0.082317 -0.036587
-0.026981 0.081449 -0.037006
-0.079127 0.138742 -0.004687
-0.015508 0.169450 -0.022235
-0.053984 0.099363 -0.021729
-0.036026 0.080610 -0.021685
-0.044104 0.080976 -0.020109
-0.051797 0.082289 -0.021563
-0.054952 0.080732 -0.021279
-0.059906 0.079811 -0.019428
-0.068687 0.080772 -0.017190
-0.072307 0.079890 -0.014623
-0.061708 0.103646 -0.018278
-0.068050 0.061794 0.019400
0.006402 0.082570 -0.033689
-0.004198 0.083672 -0.037740
-0.066649 0.160335 -0.057011
-0.072936 0.082361 -0.015662
-0.078377 0.079098 -0.007674
-0.073830 0.102185 -0.012378
-0.054519 0.157024 -0.002089
-0.065272 0.162882 -0.058794
-0.054063 0.147119 -0.001637
0.034601 0.083316 -0.018355
0.029936 0.082366 -0.020175
0.022931 0.083948 -0.025746
0.017269 0.085973 -0.028482
0.002338 0.086641 -0.034073
-0.008716 0.085128 -0.038027
-0.016700 0.085224 -0.039099
-0.022145 0.086092 -0.037909
-0.035829 0.084294 -0.022575
-0.038229 0.083530 -0.022031
-0.040555 0.083302 -0.021085
-0.061655 0.083272 -0.019425
-0.055479 0.154793 -0.001780
0.018798 0.096359 -0.022996
-0.057640 0.147357 -0.001809
-0.052760 0.152045 -0.003407
-0.016828 0.173399 -0.023891
0.013308 0.087880 -0.030690
0.004292 0.088100 -0.033606
-0.002237 0.085063 -0.037029
-0.080059 0.135397 -0.004111
-0.026433 0.086796 -0.036122
